# .PCD v0.7 - Point Cloud Data file format
VERSION 0.7
FIELDS x y z rgba
SIZE 4 4 4 4
TYPE F F F U
COUNT 1 1 1 1
WIDTH 1282
HEIGHT 1
VIEWPOINT 0 0 0 1 0 0 0
POINTS 1282
DATA ascii
2.3145332 46.09375 6 4294967295
2.3145332 45.3125 6.6666665 4294967295
2.3145332 44.53125 8 4294967295
2.3145332 43.75 8.333333 4294967295
2.3145332 42.96875 9.666667 4294967295
2.3145332 42.1875 10.333333 4294967295
2.3145332 41.40625 11 4294967295
2.3145332 40.625 11 4294967295
2.3145332 39.84375 11 4294967295
2.3145332 39.0625 11.333333 4294967295
2.3145332 38.28125 11.333333 4294967295
2.3145332 37.5 12 4294967295
2.3145332 36.71875 12 4294967295
2.3145332 35.9375 13 4294967295
2.3145332 35.15625 13.333333 4294967295
2.3145332 34.375 13.333333 4294967295
2.3145332 33.59375 14 4294967295
2.3145332 32.8125 14.333333 4294967295
2.3145332 32.03125 15 4294967295
2.3145332 31.25 15.666667 4294967295
2.3145332 30.46875 16.333334 4294967295
2.3145332 29.6875 16.666666 4294967295
2.3145332 28.90625 17 4294967295
2.3145332 28.125 17 4294967295
2.3145332 27.34375 17 4294967295
2.3145332 26.5625 16.333334 4294967295
2.3145332 25.78125 15.666667 4294967295
2.3145332 25 15 4294967295
2.3145332 24.21875 14.666667 4294967295
2.3145332 23.4375 13.666667 4294967295
2.3145332 22.65625 12 4294967295
2.3145332 21.875 10.666667 4294967295
2.3145332 21.09375 8.333333 4294967295
2.3145332 20.3125 5.6666665 4294967295
2.3145332 19.53125 3.6666667 4294967295
2.3145332 18.75 2 4294967295
2.3145332 17.96875 1.3333334 4294967295
2.3145332 17.1875 1.3333334 4294967295
2.3145332 16.40625 1.3333334 4294967295
2.3145332 15.625 2.3333333 4294967295
2.3145332 14.84375 4 4294967295
2.3145332 14.0625 6.3333335 4294967295
2.3145332 13.28125 7.3333335 4294967295
2.3145332 12.5 9.333333 4294967295
2.3145332 11.71875 11 4294967295
2.3145332 10.9375 13 4294967295
2.3145332 10.15625 14 4294967295
2.3145332 9.375 15.333333 4294967295
2.3145332 8.59375 16.333334 4294967295
2.3145332 7.8125 18 4294967295
2.3145332 7.03125 18.666666 4294967295
2.3145332 6.25 20 4294967295
2.3145332 5.46875 21.666666 4294967295
2.3145332 4.6875 24.333334 4294967295
2.3145332 3.90625 26.333334 4294967295
2.3145332 3.125 28 4294967295
2.3145332 2.34375 29 4294967295
2.3145332 1.5625 29.333334 4294967295
2.3145332 0.78125 30 4294967295
2.3145332 0 27.333334 4294967295
2.3145332 -0.78125 24.333334 4294967295
2.3145332 -1.5625 21 4294967295
2.3145332 -2.34375 16.333334 4294967295
2.3145332 -3.125 15.333333 4294967295
2.3145332 -3.90625 14.666667 4294967295
2.3145332 -4.6875 14.666667 4294967295
2.3145332 -5.46875 15 4294967295
2.3145332 -6.25 16 4294967295
2.3145332 -7.03125 17 4294967295
2.3145332 -7.8125 18 4294967295
2.3145332 -8.59375 18.666666 4294967295
2.3145332 -9.375 19 4294967295
2.3145332 -10.15625 18.333334 4294967295
2.3145332 -10.9375 17.333334 4294967295
2.3145332 -11.71875 17 4294967295
2.3145332 -12.5 16.333334 4294967295
2.3145332 -13.28125 16 4294967295
2.3145332 -14.0625 16 4294967295
2.3145332 -14.84375 15.666667 4294967295
2.3145332 -15.625 16 4294967295
2.3145332 -16.40625 15.666667 4294967295
2.3145332 -17.1875 15.666667 4294967295
2.3145332 -17.96875 15.333333 4294967295
2.3145332 -18.75 14.666667 4294967295
2.3145332 -19.53125 14 4294967295
2.3145332 -20.3125 12.666667 4294967295
2.3145332 -21.09375 11.666667 4294967295
2.3145332 -21.875 11.333333 4294967295
2.3145332 -22.65625 11 4294967295
2.3145332 -23.4375 11 4294967295
2.3145332 -24.21875 12 4294967295
2.3145332 -25 12 4294967295
2.3145332 -25.78125 13 4294967295
2.3145332 -26.5625 12.666667 4294967295
2.3145332 -27.34375 12.666667 4294967295
2.3145332 -28.125 12.666667 4294967295
2.3145332 -28.90625 12.666667 4294967295
2.3145332 -29.6875 12 4294967295
2.3145332 -30.46875 11 4294967295
2.3145332 -31.25 9.666667 4294967295
2.3145332 -32.03125 8 4294967295
2.3145332 -32.8125 7.3333335 4294967295
2.3145332 -33.59375 5 4294967295
2.3145332 -34.375 -13.666667 4294967295
1.696907 50.78125 -4.6666665 4294967295
1.696907 50 1.3333334 4294967295
1.696907 49.21875 4.3333335 4294967295
1.696907 48.4375 5.6666665 4294967295
1.696907 47.65625 4.6666665 4294967295
1.696907 46.875 5.6666665 4294967295
1.696907 46.09375 6.3333335 4294967295
1.696907 45.3125 7.3333335 4294967295
1.696907 44.53125 8.333333 4294967295
1.696907 43.75 9.333333 4294967295
1.696907 42.96875 9.666667 4294967295
1.696907 42.1875 10.666667 4294967295
1.696907 41.40625 10.666667 4294967295
1.696907 40.625 11.333333 4294967295
1.696907 39.84375 11.333333 4294967295
1.696907 39.0625 12 4294967295
1.696907 38.28125 11.666667 4294967295
1.696907 37.5 12 4294967295
1.696907 36.71875 12 4294967295
1.696907 35.9375 13 4294967295
1.696907 35.15625 13 4294967295
1.696907 34.375 14 4294967295
1.696907 33.59375 14 4294967295
1.696907 32.8125 15 4294967295
1.696907 32.03125 15 4294967295
1.696907 31.25 16.333334 4294967295
1.696907 30.46875 16.666666 4294967295
1.696907 29.6875 17.333334 4294967295
1.696907 28.90625 17.333334 4294967295
1.696907 28.125 17.333334 4294967295
1.696907 27.34375 17 4294967295
1.696907 26.5625 17.333334 4294967295
1.696907 25.78125 16 4294967295
1.696907 25 15.666667 4294967295
1.696907 24.21875 14.666667 4294967295
1.696907 23.4375 13.666667 4294967295
1.696907 22.65625 11.666667 4294967295
1.696907 21.875 10.333333 4294967295
1.696907 21.09375 7.3333335 4294967295
1.696907 20.3125 4.6666665 4294967295
1.696907 19.53125 2.6666667 4294967295
1.696907 18.75 1.3333334 4294967295
1.696907 17.96875 0.66666669 4294967295
1.696907 17.1875 1.3333334 4294967295
1.696907 16.40625 1 4294967295
1.696907 15.625 1.3333334 4294967295
1.696907 14.84375 3 4294967295
1.696907 14.0625 5 4294967295
1.696907 13.28125 6 4294967295
1.696907 12.5 8.666667 4294967295
1.696907 11.71875 9.666667 4294967295
1.696907 10.9375 11.666667 4294967295
1.696907 10.15625 11.666667 4294967295
1.696907 9.375 13.333333 4294967295
1.696907 8.59375 14 4294967295
1.696907 7.8125 16 4294967295
1.696907 7.03125 16.333334 4294967295
1.696907 6.25 18 4294967295
1.696907 5.46875 18 4294967295
1.696907 4.6875 20.333334 4294967295
1.696907 3.90625 21.666666 4294967295
1.696907 3.125 25 4294967295
1.696907 2.34375 26.666666 4294967295
1.696907 1.5625 28 4294967295
1.696907 0.78125 28 4294967295
1.696907 0 25.333334 4294967295
1.696907 -0.78125 21.666666 4294967295
1.696907 -1.5625 19 4294967295
1.696907 -2.34375 14.666667 4294967295
1.696907 -3.125 13 4294967295
1.696907 -3.90625 14 4294967295
1.696907 -4.6875 14.666667 4294967295
1.696907 -5.46875 13.666667 4294967295
1.696907 -6.25 15.333333 4294967295
1.696907 -7.03125 16.333334 4294967295
1.696907 -7.8125 17.333334 4294967295
1.696907 -8.59375 18 4294967295
1.696907 -9.375 18.666666 4294967295
1.696907 -10.15625 18.333334 4294967295
1.696907 -10.9375 18.333334 4294967295
1.696907 -11.71875 17.333334 4294967295
1.696907 -12.5 16.666666 4294967295
1.696907 -13.28125 16 4294967295
1.696907 -14.0625 15.666667 4294967295
1.696907 -14.84375 15 4294967295
1.696907 -15.625 15.666667 4294967295
1.696907 -16.40625 15 4294967295
1.696907 -17.1875 16 4294967295
1.696907 -17.96875 15 4294967295
1.696907 -18.75 15 4294967295
1.696907 -19.53125 14 4294967295
1.696907 -20.3125 13 4294967295
1.696907 -21.09375 11.333333 4294967295
1.696907 -21.875 11 4294967295
1.696907 -22.65625 10.666667 4294967295
1.696907 -23.4375 11 4294967295
1.696907 -24.21875 11.333333 4294967295
1.696907 -25 12 4294967295
1.696907 -25.78125 12 4294967295
1.696907 -26.5625 12.666667 4294967295
1.696907 -27.34375 12 4294967295
1.696907 -28.125 12 4294967295
1.696907 -28.90625 11.666667 4294967295
1.696907 -29.6875 11.333333 4294967295
1.696907 -30.46875 10.333333 4294967295
1.696907 -31.25 9 4294967295
1.696907 -32.03125 6.6666665 4294967295
1.696907 -32.8125 6.3333335 4294967295
1.696907 -33.59375 5.6666665 4294967295
1.696907 -34.375 -16.666666 4294967295
1.696907 -35.15625 -33.333332 4294967295
1.0792809 50.78125 -10 4294967295
1.0792809 50 3 4294967295
1.0792809 49.21875 4.3333335 4294967295
1.0792809 48.4375 4.6666665 4294967295
1.0792809 47.65625 4.3333335 4294967295
1.0792809 46.875 5.3333335 4294967295
1.0792809 46.09375 6.3333335 4294967295
1.0792809 45.3125 7.3333335 4294967295
1.0792809 44.53125 8.333333 4294967295
1.0792809 43.75 9 4294967295
1.0792809 42.96875 9.666667 4294967295
1.0792809 42.1875 10 4294967295
1.0792809 41.40625 10.666667 4294967295
1.0792809 40.625 10.666667 4294967295
1.0792809 39.84375 11 4294967295
1.0792809 39.0625 11 4294967295
1.0792809 38.28125 11.333333 4294967295
1.0792809 37.5 11.666667 4294967295
1.0792809 36.71875 12 4294967295
1.0792809 35.9375 12 4294967295
1.0792809 35.15625 12.666667 4294967295
1.0792809 34.375 13.333333 4294967295
1.0792809 33.59375 14.333333 4294967295
1.0792809 32.8125 14.666667 4294967295
1.0792809 32.03125 15.333333 4294967295
1.0792809 31.25 16 4294967295
1.0792809 30.46875 16.666666 4294967295
1.0792809 29.6875 16.666666 4294967295
1.0792809 28.90625 17 4294967295
1.0792809 28.125 17 4294967295
1.0792809 27.34375 17 4294967295
1.0792809 26.5625 16.666666 4294967295
1.0792809 25.78125 16 4294967295
1.0792809 25 15 4294967295
1.0792809 24.21875 14 4294967295
1.0792809 23.4375 13 4294967295
1.0792809 22.65625 11 4294967295
1.0792809 21.875 8.666667 4294967295
1.0792809 21.09375 5.3333335 4294967295
1.0792809 20.3125 2.6666667 4294967295
1.0792809 19.53125 1 4294967295
1.0792809 18.75 0 4294967295
1.0792809 17.96875 0.33333334 4294967295
1.0792809 17.1875 0 4294967295
1.0792809 16.40625 0.33333334 4294967295
1.0792809 15.625 0.33333334 4294967295
1.0792809 14.84375 1.3333334 4294967295
1.0792809 14.0625 3.3333333 4294967295
1.0792809 13.28125 4.6666665 4294967295
1.0792809 12.5 6.6666665 4294967295
1.0792809 11.71875 8 4294967295
1.0792809 10.9375 9.333333 4294967295
1.0792809 10.15625 10.333333 4294967295
1.0792809 9.375 11.333333 4294967295
1.0792809 8.59375 12 4294967295
1.0792809 7.8125 13.666667 4294967295
1.0792809 7.03125 14 4294967295
1.0792809 6.25 14.666667 4294967295
1.0792809 5.46875 14.333333 4294967295
1.0792809 4.6875 15.666667 4294967295
1.0792809 3.90625 17 4294967295
1.0792809 3.125 19.666666 4294967295
1.0792809 2.34375 22.666666 4294967295
1.0792809 1.5625 24.333334 4294967295
1.0792809 0.78125 24 4294967295
1.0792809 0 21.666666 4294967295
1.0792809 -0.78125 16.333334 4294967295
1.0792809 -1.5625 13.666667 4294967295
1.0792809 -2.34375 11.666667 4294967295
1.0792809 -3.125 10.666667 4294967295
1.0792809 -3.90625 12.666667 4294967295
1.0792809 -4.6875 13.333333 4294967295
1.0792809 -5.46875 13 4294967295
1.0792809 -6.25 14.333333 4294967295
1.0792809 -7.03125 15.666667 4294967295
1.0792809 -7.8125 16.666666 4294967295
1.0792809 -8.59375 17.333334 4294967295
1.0792809 -9.375 17.333334 4294967295
1.0792809 -10.15625 18 4294967295
1.0792809 -10.9375 17.333334 4294967295
1.0792809 -11.71875 16.666666 4294967295
1.0792809 -12.5 15.666667 4294967295
1.0792809 -13.28125 15.333333 4294967295
1.0792809 -14.0625 14.666667 4294967295
1.0792809 -14.84375 14.666667 4294967295
1.0792809 -15.625 14.666667 4294967295
1.0792809 -16.40625 14.666667 4294967295
1.0792809 -17.1875 14.666667 4294967295
1.0792809 -17.96875 14.333333 4294967295
1.0792809 -18.75 14 4294967295
1.0792809 -19.53125 13.333333 4294967295
1.0792809 -20.3125 12 4294967295
1.0792809 -21.09375 11 4294967295
1.0792809 -21.875 10.333333 4294967295
1.0792809 -22.65625 10.333333 4294967295
1.0792809 -23.4375 10.333333 4294967295
1.0792809 -24.21875 11 4294967295
1.0792809 -25 11 4294967295
1.0792809 -25.78125 11.333333 4294967295
1.0792809 -26.5625 11.333333 4294967295
1.0792809 -27.34375 11.333333 4294967295
1.0792809 -28.125 11.333333 4294967295
1.0792809 -28.90625 11.666667 4294967295
1.0792809 -29.6875 10.666667 4294967295
1.0792809 -30.46875 9.333333 4294967295
1.0792809 -31.25 8 4294967295
1.0792809 -32.03125 6.3333335 4294967295
1.0792809 -32.8125 4.6666665 4294967295
1.0792809 -33.59375 -1.3333334 4294967295
1.0792809 -34.375 -10.666667 4294967295
0.46165848 52.34375 -33.666668 4294967295
0.46165848 50.78125 -14.666667 4294967295
0.46165848 50 3.6666667 4294967295
0.46165848 49.21875 4 4294967295
0.46165848 48.4375 4.6666665 4294967295
0.46165848 47.65625 5 4294967295
0.46165848 46.875 5.6666665 4294967295
0.46165848 46.09375 6.3333335 4294967295
0.46165848 45.3125 7.6666665 4294967295
0.46165848 44.53125 8.333333 4294967295
0.46165848 43.75 9.333333 4294967295
0.46165848 42.96875 9.666667 4294967295
0.46165848 42.1875 10.333333 4294967295
0.46165848 41.40625 10 4294967295
0.46165848 40.625 10.666667 4294967295
0.46165848 39.84375 10.666667 4294967295
0.46165848 39.0625 11.666667 4294967295
0.46165848 38.28125 11.333333 4294967295
0.46165848 37.5 12 4294967295
0.46165848 36.71875 12 4294967295
0.46165848 35.9375 12 4294967295
0.46165848 35.15625 12.666667 4294967295
0.46165848 34.375 13.666667 4294967295
0.46165848 33.59375 14 4294967295
0.46165848 32.8125 15.333333 4294967295
0.46165848 32.03125 15.666667 4294967295
0.46165848 31.25 16.666666 4294967295
0.46165848 30.46875 16.666666 4294967295
0.46165848 29.6875 17.333334 4294967295
0.46165848 28.90625 17.333334 4294967295
0.46165848 28.125 17.333334 4294967295
0.46165848 27.34375 17 4294967295
0.46165848 26.5625 17 4294967295
0.46165848 25.78125 15.666667 4294967295
0.46165848 25 15.333333 4294967295
0.46165848 24.21875 14 4294967295
0.46165848 23.4375 13 4294967295
0.46165848 22.65625 10.333333 4294967295
0.46165848 21.875 8.333333 4294967295
0.46165848 21.09375 4.6666665 4294967295
0.46165848 20.3125 2 4294967295
0.46165848 19.53125 0.66666669 4294967295
0.46165848 18.75 -0.33333334 4294967295
0.46165848 17.96875 -0.33333334 4294967295
0.46165848 17.1875 0 4294967295
0.46165848 16.40625 -1 4294967295
0.46165848 15.625 0.33333334 4294967295
0.46165848 14.84375 1.3333334 4294967295
0.46165848 14.0625 3 4294967295
0.46165848 13.28125 3.6666667 4294967295
0.46165848 12.5 6 4294967295
0.46165848 11.71875 6.6666665 4294967295
0.46165848 10.9375 8.333333 4294967295
0.46165848 10.15625 8.666667 4294967295
0.46165848 9.375 10.333333 4294967295
0.46165848 8.59375 10.666667 4294967295
0.46165848 7.8125 12 4294967295
0.46165848 7.03125 12 4294967295
0.46165848 6.25 13 4294967295
0.46165848 5.46875 12.666667 4294967295
0.46165848 4.6875 13.333333 4294967295
0.46165848 3.90625 13.333333 4294967295
0.46165848 3.125 15.333333 4294967295
0.46165848 2.34375 17 4294967295
0.46165848 1.5625 20 4294967295
0.46165848 0.78125 20.333334 4294967295
0.46165848 0 17.333334 4294967295
0.46165848 -0.78125 14 4294967295
0.46165848 -1.5625 12.666667 4294967295
0.46165848 -2.34375 11.333333 4294967295
0.46165848 -3.125 11.666667 4294967295
0.46165848 -3.90625 11 4294967295
0.46165848 -4.6875 11.333333 4294967295
0.46165848 -5.46875 12.666667 4294967295
0.46165848 -6.25 13.666667 4294967295
0.46165848 -7.03125 14.666667 4294967295
0.46165848 -7.8125 16.333334 4294967295
0.46165848 -8.59375 16.666666 4294967295
0.46165848 -9.375 17.333334 4294967295
0.46165848 -10.15625 17 4294967295
0.46165848 -10.9375 17 4294967295
0.46165848 -11.71875 16 4294967295
0.46165848 -12.5 15.666667 4294967295
0.46165848 -13.28125 14.666667 4294967295
0.46165848 -14.0625 14.666667 4294967295
0.46165848 -14.84375 14 4294967295
0.46165848 -15.625 14.666667 4294967295
0.46165848 -16.40625 14 4294967295
0.46165848 -17.1875 14.333333 4294967295
0.46165848 -17.96875 13.666667 4294967295
0.46165848 -18.75 13.666667 4294967295
0.46165848 -19.53125 12.666667 4294967295
0.46165848 -20.3125 12 4294967295
0.46165848 -21.09375 11 4294967295
0.46165848 -21.875 10.666667 4294967295
0.46165848 -22.65625 10 4294967295
0.46165848 -23.4375 10.333333 4294967295
0.46165848 -24.21875 10.333333 4294967295
0.46165848 -25 10.666667 4294967295
0.46165848 -25.78125 10 4294967295
0.46165848 -26.5625 10.666667 4294967295
0.46165848 -27.34375 10.333333 4294967295
0.46165848 -28.125 11 4294967295
0.46165848 -28.90625 11 4294967295
0.46165848 -29.6875 10.333333 4294967295
0.46165848 -30.46875 9 4294967295
0.46165848 -31.25 8 4294967295
0.46165848 -32.03125 6 4294967295
0.46165848 -32.8125 5 4294967295
0.46165848 -33.59375 1 4294967295
0.46165848 -34.375 -16.333334 4294967295
-0.15596771 50.78125 -20 4294967295
-0.15596771 50 2.6666667 4294967295
-0.15596771 49.21875 3 4294967295
-0.15596771 48.4375 4.6666665 4294967295
-0.15596771 47.65625 4.3333335 4294967295
-0.15596771 46.875 5 4294967295
-0.15596771 46.09375 5.6666665 4294967295
-0.15596771 45.3125 7.3333335 4294967295
-0.15596771 44.53125 8 4294967295
-0.15596771 43.75 8.666667 4294967295
-0.15596771 42.96875 9.333333 4294967295
-0.15596771 42.1875 9.666667 4294967295
-0.15596771 41.40625 10 4294967295
-0.15596771 40.625 10 4294967295
-0.15596771 39.84375 10.666667 4294967295
-0.15596771 39.0625 10.666667 4294967295
-0.15596771 38.28125 11 4294967295
-0.15596771 37.5 11.333333 4294967295
-0.15596771 36.71875 11.333333 4294967295
-0.15596771 35.9375 11.666667 4294967295
-0.15596771 35.15625 12 4294967295
-0.15596771 34.375 13 4294967295
-0.15596771 33.59375 14 4294967295
-0.15596771 32.8125 14.666667 4294967295
-0.15596771 32.03125 15.333333 4294967295
-0.15596771 31.25 15.666667 4294967295
-0.15596771 30.46875 16 4294967295
-0.15596771 29.6875 16.333334 4294967295
-0.15596771 28.90625 17 4294967295
-0.15596771 28.125 17 4294967295
-0.15596771 27.34375 17 4294967295
-0.15596771 26.5625 16.333334 4294967295
-0.15596771 25.78125 15.333333 4294967295
-0.15596771 25 14.333333 4294967295
-0.15596771 24.21875 13.333333 4294967295
-0.15596771 23.4375 11.666667 4294967295
-0.15596771 22.65625 9.333333 4294967295
-0.15596771 21.875 6.6666665 4294967295
-0.15596771 21.09375 4 4294967295
-0.15596771 20.3125 1.3333334 4294967295
-0.15596771 19.53125 0 4294967295
-0.15596771 18.75 -1 4294967295
-0.15596771 17.96875 -2 4294967295
-0.15596771 17.1875 -2 4294967295
-0.15596771 16.40625 -1.3333334 4294967295
-0.15596771 15.625 -0.33333334 4294967295
-0.15596771 14.84375 0.66666669 4294967295
-0.15596771 14.0625 1.3333334 4294967295
-0.15596771 13.28125 2.6666667 4294967295
-0.15596771 12.5 3.6666667 4294967295
-0.15596771 11.71875 5 4294967295
-0.15596771 10.9375 6 4294967295
-0.15596771 10.15625 6.6666665 4294967295
-0.15596771 9.375 7.6666665 4294967295
-0.15596771 8.59375 8.333333 4294967295
-0.15596771 7.8125 9.333333 4294967295
-0.15596771 7.03125 9.666667 4294967295
-0.15596771 6.25 10 4294967295
-0.15596771 5.46875 10.666667 4294967295
-0.15596771 4.6875 11 4294967295
-0.15596771 3.90625 11 4294967295
-0.15596771 3.125 11.666667 4294967295
-0.15596771 2.34375 12.666667 4294967295
-0.15596771 1.5625 14 4294967295
-0.15596771 0.78125 15.666667 4294967295
-0.15596771 0 13.666667 4294967295
-0.15596771 -0.78125 10.333333 4294967295
-0.15596771 -1.5625 9.666667 4294967295
-0.15596771 -2.34375 10 4294967295
-0.15596771 -3.125 10.333333 4294967295
-0.15596771 -3.90625 11 4294967295
-0.15596771 -4.6875 10.333333 4294967295
-0.15596771 -5.46875 11.666667 4294967295
-0.15596771 -6.25 12 4294967295
-0.15596771 -7.03125 13.666667 4294967295
-0.15596771 -7.8125 15 4294967295
-0.15596771 -8.59375 16 4294967295
-0.15596771 -9.375 16 4294967295
-0.15596771 -10.15625 16.333334 4294967295
-0.15596771 -10.9375 15.666667 4294967295
-0.15596771 -11.71875 15.333333 4294967295
-0.15596771 -12.5 14.333333 4294967295
-0.15596771 -13.28125 13.666667 4294967295
-0.15596771 -14.0625 13.333333 4294967295
-0.15596771 -14.84375 13 4294967295
-0.15596771 -15.625 13 4294967295
-0.15596771 -16.40625 13.333333 4294967295
-0.15596771 -17.1875 12.666667 4294967295
-0.15596771 -17.96875 12.666667 4294967295
-0.15596771 -18.75 12 4294967295
-0.15596771 -19.53125 11.666667 4294967295
-0.15596771 -20.3125 10.666667 4294967295
-0.15596771 -21.09375 10 4294967295
-0.15596771 -21.875 9.333333 4294967295
-0.15596771 -22.65625 9.333333 4294967295
-0.15596771 -23.4375 9.666667 4294967295
-0.15596771 -24.21875 9.666667 4294967295
-0.15596771 -25 9.666667 4294967295
-0.15596771 -25.78125 9.333333 4294967295
-0.15596771 -26.5625 9.333333 4294967295
-0.15596771 -27.34375 9.666667 4294967295
-0.15596771 -28.125 10 4294967295
-0.15596771 -28.90625 10.333333 4294967295
-0.15596771 -29.6875 9.333333 4294967295
-0.15596771 -30.46875 8.333333 4294967295
-0.15596771 -31.25 6.6666665 4294967295
-0.15596771 -32.03125 4.6666665 4294967295
-0.15596771 -32.8125 2 4294967295
-0.15596771 -33.59375 -3.3333333 4294967295
-0.15596771 -34.375 -16.666666 4294967295
-0.77359009 50.78125 -29 4294967295
-0.77359009 50 0 4294967295
-0.77359009 49.21875 6 4294967295
-0.77359009 48.4375 4.3333335 4294967295
-0.77359009 47.65625 4 4294967295
-0.77359009 46.875 5 4294967295
-0.77359009 46.09375 5.6666665 4294967295
-0.77359009 45.3125 7.3333335 4294967295
-0.77359009 44.53125 7.6666665 4294967295
-0.77359009 43.75 8.666667 4294967295
-0.77359009 42.96875 9.333333 4294967295
-0.77359009 42.1875 9.666667 4294967295
-0.77359009 41.40625 9.666667 4294967295
-0.77359009 40.625 10.333333 4294967295
-0.77359009 39.84375 10 4294967295
-0.77359009 39.0625 10.666667 4294967295
-0.77359009 38.28125 10.666667 4294967295
-0.77359009 37.5 11.333333 4294967295
-0.77359009 36.71875 11.333333 4294967295
-0.77359009 35.9375 12 4294967295
-0.77359009 35.15625 12 4294967295
-0.77359009 34.375 13.333333 4294967295
-0.77359009 33.59375 13.666667 4294967295
-0.77359009 32.8125 14.666667 4294967295
-0.77359009 32.03125 15 4294967295
-0.77359009 31.25 16 4294967295
-0.77359009 30.46875 16 4294967295
-0.77359009 29.6875 16.666666 4294967295
-0.77359009 28.90625 16.666666 4294967295
-0.77359009 28.125 17.333334 4294967295
-0.77359009 27.34375 17 4294967295
-0.77359009 26.5625 16.666666 4294967295
-0.77359009 25.78125 15.333333 4294967295
-0.77359009 25 14.666667 4294967295
-0.77359009 24.21875 13.333333 4294967295
-0.77359009 23.4375 11.666667 4294967295
-0.77359009 22.65625 9 4294967295
-0.77359009 21.875 6.6666665 4294967295
-0.77359009 21.09375 3.6666667 4294967295
-0.77359009 20.3125 1 4294967295
-0.77359009 19.53125 -0.33333334 4294967295
-0.77359009 18.75 -1 4294967295
-0.77359009 17.96875 -2 4294967295
-0.77359009 17.1875 -2 4294967295
-0.77359009 16.40625 -2 4294967295
-0.77359009 15.625 -0.66666669 4294967295
-0.77359009 14.84375 0.33333334 4294967295
-0.77359009 14.0625 1 4294967295
-0.77359009 13.28125 2 4294967295
-0.77359009 12.5 3 4294967295
-0.77359009 11.71875 3.6666667 4294967295
-0.77359009 10.9375 5 4294967295
-0.77359009 10.15625 5.6666665 4294967295
-0.77359009 9.375 6.6666665 4294967295
-0.77359009 8.59375 6.6666665 4294967295
-0.77359009 7.8125 8.666667 4294967295
-0.77359009 7.03125 8 4294967295
-0.77359009 6.25 9 4294967295
-0.77359009 5.46875 9.333333 4294967295
-0.77359009 4.6875 10.333333 4294967295
-0.77359009 3.90625 10.333333 4294967295
-0.77359009 3.125 10.666667 4294967295
-0.77359009 2.34375 10.333333 4294967295
-0.77359009 1.5625 11 4294967295
-0.77359009 0.78125 12 4294967295
-0.77359009 0 12 4294967295
-0.77359009 -0.78125 8.666667 4294967295
-0.77359009 -1.5625 9 4294967295
-0.77359009 -2.34375 8.666667 4294967295
-0.77359009 -3.125 10 4294967295
-0.77359009 -3.90625 9.333333 4294967295
-0.77359009 -4.6875 10.333333 4294967295
-0.77359009 -5.46875 10.333333 4294967295
-0.77359009 -6.25 12 4294967295
-0.77359009 -7.03125 12.666667 4294967295
-0.77359009 -7.8125 14.666667 4294967295
-0.77359009 -8.59375 15 4294967295
-0.77359009 -9.375 15.666667 4294967295
-0.77359009 -10.15625 16 4294967295
-0.77359009 -10.9375 15.666667 4294967295
-0.77359009 -11.71875 14.666667 4294967295
-0.77359009 -12.5 14 4294967295
-0.77359009 -13.28125 13 4294967295
-0.77359009 -14.0625 13 4294967295
-0.77359009 -14.84375 12 4294967295
-0.77359009 -15.625 12.666667 4294967295
-0.77359009 -16.40625 12 4294967295
-0.77359009 -17.1875 12 4294967295
-0.77359009 -17.96875 11.666667 4294967295
-0.77359009 -18.75 11.333333 4294967295
-0.77359009 -19.53125 11 4294967295
-0.77359009 -20.3125 10.333333 4294967295
-0.77359009 -21.09375 9.666667 4294967295
-0.77359009 -21.875 9.333333 4294967295
-0.77359009 -22.65625 8.666667 4294967295
-0.77359009 -23.4375 9 4294967295
-0.77359009 -24.21875 9 4294967295
-0.77359009 -25 9 4294967295
-0.77359009 -25.78125 8.333333 4294967295
-0.77359009 -26.5625 9 4294967295
-0.77359009 -27.34375 9 4294967295
-0.77359009 -28.125 9.666667 4294967295
-0.77359009 -28.90625 9.333333 4294967295
-0.77359009 -29.6875 8.666667 4294967295
-0.77359009 -30.46875 7.3333335 4294967295
-0.77359009 -31.25 6 4294967295
-0.77359009 -32.03125 4 4294967295
-0.77359009 -32.8125 2 4294967295
-0.77359009 -33.59375 -7.6666665 4294967295
-0.77359009 -34.375 -23.666666 4294967295
-1.3912163 50.78125 -26.666666 4294967295
-1.3912163 50 -4 4294967295
-1.3912163 49.21875 3.6666667 4294967295
-1.3912163 48.4375 4 4294967295
-1.3912163 47.65625 4 4294967295
-1.3912163 46.875 4.6666665 4294967295
-1.3912163 46.09375 5.6666665 4294967295
-1.3912163 45.3125 6.6666665 4294967295
-1.3912163 44.53125 7.3333335 4294967295
-1.3912163 43.75 8 4294967295
-1.3912163 42.96875 8.666667 4294967295
-1.3912163 42.1875 9 4294967295
-1.3912163 41.40625 9.333333 4294967295
-1.3912163 40.625 9.333333 4294967295
-1.3912163 39.84375 9.666667 4294967295
-1.3912163 39.0625 10 4294967295
-1.3912163 38.28125 10 4294967295
-1.3912163 37.5 10.333333 4294967295
-1.3912163 36.71875 10.666667 4294967295
-1.3912163 35.9375 11 4294967295
-1.3912163 35.15625 11.666667 4294967295
-1.3912163 34.375 12 4294967295
-1.3912163 33.59375 13 4294967295
-1.3912163 32.8125 13.666667 4294967295
-1.3912163 32.03125 14.333333 4294967295
-1.3912163 31.25 15 4294967295
-1.3912163 30.46875 15.333333 4294967295
-1.3912163 29.6875 16 4294967295
-1.3912163 28.90625 16 4294967295
-1.3912163 28.125 16.333334 4294967295
-1.3912163 27.34375 16.333334 4294967295
-1.3912163 26.5625 15.666667 4294967295
-1.3912163 25.78125 15 4294967295
-1.3912163 25 14 4294967295
-1.3912163 24.21875 13 4294967295
-1.3912163 23.4375 11.333333 4294967295
-1.3912163 22.65625 9 4294967295
-1.3912163 21.875 6 4294967295
-1.3912163 21.09375 3 4294967295
-1.3912163 20.3125 0.66666669 4294967295
-1.3912163 19.53125 -0.66666669 4294967295
-1.3912163 18.75 -2 4294967295
-1.3912163 17.96875 -2.6666667 4294967295
-1.3912163 17.1875 -3 4294967295
-1.3912163 16.40625 -2.6666667 4294967295
-1.3912163 15.625 -1 4294967295
-1.3912163 14.84375 0 4294967295
-1.3912163 14.0625 0.33333334 4294967295
-1.3912163 13.28125 1 4294967295
-1.3912163 12.5 1.3333334 4294967295
-1.3912163 11.71875 2.6666667 4294967295
-1.3912163 10.9375 3.6666667 4294967295
-1.3912163 10.15625 4 4294967295
-1.3912163 9.375 4.6666665 4294967295
-1.3912163 8.59375 5 4294967295
-1.3912163 7.8125 5.6666665 4294967295
-1.3912163 7.03125 6.6666665 4294967295
-1.3912163 6.25 7.3333335 4294967295
-1.3912163 5.46875 8 4294967295
-1.3912163 4.6875 8.333333 4294967295
-1.3912163 3.90625 9 4294967295
-1.3912163 3.125 8.666667 4294967295
-1.3912163 2.34375 8.666667 4294967295
-1.3912163 1.5625 8.666667 4294967295
-1.3912163 0.78125 8.666667 4294967295
-1.3912163 0 8.333333 4294967295
-1.3912163 -0.78125 7.3333335 4294967295
-1.3912163 -1.5625 7.3333335 4294967295
-1.3912163 -2.34375 8 4294967295
-1.3912163 -3.125 8.333333 4294967295
-1.3912163 -3.90625 8.666667 4294967295
-1.3912163 -4.6875 9 4294967295
-1.3912163 -5.46875 10 4294967295
-1.3912163 -6.25 10.666667 4294967295
-1.3912163 -7.03125 12 4294967295
-1.3912163 -7.8125 13.666667 4294967295
-1.3912163 -8.59375 14.333333 4294967295
-1.3912163 -9.375 14.666667 4294967295
-1.3912163 -10.15625 14.666667 4294967295
-1.3912163 -10.9375 14.333333 4294967295
-1.3912163 -11.71875 14 4294967295
-1.3912163 -12.5 12.666667 4294967295
-1.3912163 -13.28125 12 4294967295
-1.3912163 -14.0625 11.333333 4294967295
-1.3912163 -14.84375 11 4294967295
-1.3912163 -15.625 11 4294967295
-1.3912163 -16.40625 10.666667 4294967295
-1.3912163 -17.1875 10.666667 4294967295
-1.3912163 -17.96875 10.333333 4294967295
-1.3912163 -18.75 10 4294967295
-1.3912163 -19.53125 9.666667 4294967295
-1.3912163 -20.3125 9.333333 4294967295
-1.3912163 -21.09375 8.666667 4294967295
-1.3912163 -21.875 8 4294967295
-1.3912163 -22.65625 8 4294967295
-1.3912163 -23.4375 8 4294967295
-1.3912163 -24.21875 8 4294967295
-1.3912163 -25 8 4294967295
-1.3912163 -25.78125 7.3333335 4294967295
-1.3912163 -26.5625 7.6666665 4294967295
-1.3912163 -27.34375 8 4294967295
-1.3912163 -28.125 8.333333 4294967295
-1.3912163 -28.90625 8 4294967295
-1.3912163 -29.6875 7.3333335 4294967295
-1.3912163 -30.46875 5.6666665 4294967295
-1.3912163 -31.25 3.6666667 4294967295
-1.3912163 -32.03125 1.3333334 4294967295
-1.3912163 -32.8125 -2.3333333 4294967295
-1.3912163 -33.59375 -10.333333 4294967295
-1.3912163 -39.84375 -33.666668 4294967295
-2.0088425 50.78125 -30.666666 4294967295
-2.0088425 50 -5.3333335 4294967295
-2.0088425 49.21875 0.33333334 4294967295
-2.0088425 48.4375 3.6666667 4294967295
-2.0088425 47.65625 4.3333335 4294967295
-2.0088425 46.875 5.3333335 4294967295
-2.0088425 46.09375 5.6666665 4294967295
-2.0088425 45.3125 6.6666665 4294967295
-2.0088425 44.53125 6.6666665 4294967295
-2.0088425 43.75 8 4294967295
-2.0088425 42.96875 8.333333 4294967295
-2.0088425 42.1875 9 4294967295
-2.0088425 41.40625 9.333333 4294967295
-2.0088425 40.625 9.666667 4294967295
-2.0088425 39.84375 9.333333 4294967295
-2.0088425 39.0625 10 4294967295
-2.0088425 38.28125 9.666667 4294967295
-2.0088425 37.5 10.333333 4294967295
-2.0088425 36.71875 10.333333 4294967295
-2.0088425 35.9375 11 4294967295
-2.0088425 35.15625 11.333333 4294967295
-2.0088425 34.375 12 4294967295
-2.0088425 33.59375 12 4294967295
-2.0088425 32.8125 13.666667 4294967295
-2.0088425 32.03125 13.666667 4294967295
-2.0088425 31.25 15 4294967295
-2.0088425 30.46875 15 4294967295
-2.0088425 29.6875 15.666667 4294967295
-2.0088425 28.90625 16 4294967295
-2.0088425 28.125 16.333334 4294967295
-2.0088425 27.34375 16 4294967295
-2.0088425 26.5625 16 4294967295
-2.0088425 25.78125 15 4294967295
-2.0088425 25 14.666667 4294967295
-2.0088425 24.21875 13.333333 4294967295
-2.0088425 23.4375 11.666667 4294967295
-2.0088425 22.65625 8.666667 4294967295
-2.0088425 21.875 6 4294967295
-2.0088425 21.09375 2.6666667 4294967295
-2.0088425 20.3125 1.3333334 4294967295
-2.0088425 19.53125 -1 4294967295
-2.0088425 18.75 -2 4294967295
-2.0088425 17.96875 -2.3333333 4294967295
-2.0088425 17.1875 -2.6666667 4294967295
-2.0088425 16.40625 -2 4294967295
-2.0088425 15.625 -0.33333334 4294967295
-2.0088425 14.84375 0 4294967295
-2.0088425 14.0625 0.33333334 4294967295
-2.0088425 13.28125 1 4294967295
-2.0088425 12.5 1.3333334 4294967295
-2.0088425 11.71875 2 4294967295
-2.0088425 10.9375 3 4294967295
-2.0088425 10.15625 3.6666667 4294967295
-2.0088425 9.375 4.3333335 4294967295
-2.0088425 8.59375 4.6666665 4294967295
-2.0088425 7.8125 5 4294967295
-2.0088425 7.03125 6 4294967295
-2.0088425 6.25 6.6666665 4294967295
-2.0088425 5.46875 6.6666665 4294967295
-2.0088425 4.6875 7.6666665 4294967295
-2.0088425 3.90625 8 4294967295
-2.0088425 3.125 8 4294967295
-2.0088425 2.34375 8 4294967295
-2.0088425 1.5625 8 4294967295
-2.0088425 0.78125 6.6666665 4294967295
-2.0088425 0 6.6666665 4294967295
-2.0088425 -0.78125 6.6666665 4294967295
-2.0088425 -1.5625 7.3333335 4294967295
-2.0088425 -2.34375 8 4294967295
-2.0088425 -3.125 8.333333 4294967295
-2.0088425 -3.90625 8.333333 4294967295
-2.0088425 -4.6875 8.666667 4294967295
-2.0088425 -5.46875 9.333333 4294967295
-2.0088425 -6.25 10.666667 4294967295
-2.0088425 -7.03125 11.666667 4294967295
-2.0088425 -7.8125 13.333333 4294967295
-2.0088425 -8.59375 13.666667 4294967295
-2.0088425 -9.375 14.333333 4294967295
-2.0088425 -10.15625 14.333333 4294967295
-2.0088425 -10.9375 14 4294967295
-2.0088425 -11.71875 13 4294967295
-2.0088425 -12.5 12 4294967295
-2.0088425 -13.28125 11 4294967295
-2.0088425 -14.0625 10.666667 4294967295
-2.0088425 -14.84375 9.666667 4294967295
-2.0088425 -15.625 10 4294967295
-2.0088425 -16.40625 9.333333 4294967295
-2.0088425 -17.1875 10 4294967295
-2.0088425 -17.96875 9.333333 4294967295
-2.0088425 -18.75 9.666667 4294967295
-2.0088425 -19.53125 9 4294967295
-2.0088425 -20.3125 9 4294967295
-2.0088425 -21.09375 8 4294967295
-2.0088425 -21.875 8 4294967295
-2.0088425 -22.65625 7.3333335 4294967295
-2.0088425 -23.4375 7.3333335 4294967295
-2.0088425 -24.21875 7.6666665 4294967295
-2.0088425 -25 7.3333335 4294967295
-2.0088425 -25.78125 6.6666665 4294967295
-2.0088425 -26.5625 7.3333335 4294967295
-2.0088425 -27.34375 7.3333335 4294967295
-2.0088425 -28.125 7.3333335 4294967295
-2.0088425 -28.90625 6.6666665 4294967295
-2.0088425 -29.6875 6 4294967295
-2.0088425 -30.46875 4.3333335 4294967295
-2.0088425 -31.25 2.3333333 4294967295
-2.0088425 -32.03125 -1 4294967295
-2.0088425 -32.8125 -9 4294967295
-2.0088425 -33.59375 -22.333334 4294967295
-2.0088425 -36.71875 -33.666668 4294967295
-2.6264648 50.78125 -32.666668 4294967295
-2.6264648 50 -11.333333 4294967295
-2.6264648 49.21875 2.6666667 4294967295
-2.6264648 48.4375 4 4294967295
-2.6264648 47.65625 3.6666667 4294967295
-2.6264648 46.875 5 4294967295
-2.6264648 46.09375 6 4294967295
-2.6264648 45.3125 6.6666665 4294967295
-2.6264648 44.53125 6.6666665 4294967295
-2.6264648 43.75 7.3333335 4294967295
-2.6264648 42.96875 8 4294967295
-2.6264648 42.1875 8.666667 4294967295
-2.6264648 41.40625 9 4294967295
-2.6264648 40.625 9 4294967295
-2.6264648 39.84375 9 4294967295
-2.6264648 39.0625 9.333333 4294967295
-2.6264648 38.28125 9.333333 4294967295
-2.6264648 37.5 9.666667 4294967295
-2.6264648 36.71875 10 4294967295
-2.6264648 35.9375 10.333333 4294967295
-2.6264648 35.15625 10.666667 4294967295
-2.6264648 34.375 11.333333 4294967295
-2.6264648 33.59375 12 4294967295
-2.6264648 32.8125 12.666667 4294967295
-2.6264648 32.03125 13.666667 4294967295
-2.6264648 31.25 14.333333 4294967295
-2.6264648 30.46875 15 4294967295
-2.6264648 29.6875 15.333333 4294967295
-2.6264648 28.90625 15.333333 4294967295
-2.6264648 28.125 15.666667 4294967295
-2.6264648 27.34375 15.666667 4294967295
-2.6264648 26.5625 15.333333 4294967295
-2.6264648 25.78125 15 4294967295
-2.6264648 25 14 4294967295
-2.6264648 24.21875 13.333333 4294967295
-2.6264648 23.4375 11.333333 4294967295
-2.6264648 22.65625 8.666667 4294967295
-2.6264648 21.875 6 4294967295
-2.6264648 21.09375 2.6666667 4294967295
-2.6264648 20.3125 0.66666669 4294967295
-2.6264648 19.53125 -0.33333334 4294967295
-2.6264648 18.75 -1 4294967295
-2.6264648 17.96875 -2.3333333 4294967295
-2.6264648 17.1875 -2.6666667 4294967295
-2.6264648 16.40625 -2 4294967295
-2.6264648 15.625 -0.66666669 4294967295
-2.6264648 14.84375 0.33333334 4294967295
-2.6264648 14.0625 0.66666669 4294967295
-2.6264648 13.28125 1.3333334 4294967295
-2.6264648 12.5 1.3333334 4294967295
-2.6264648 11.71875 1.3333334 4294967295
-2.6264648 10.9375 2.6666667 4294967295
-2.6264648 10.15625 3 4294967295
-2.6264648 9.375 3 4294967295
-2.6264648 8.59375 4 4294967295
-2.6264648 7.8125 4.3333335 4294967295
-2.6264648 7.03125 5 4294967295
-2.6264648 6.25 5.6666665 4294967295
-2.6264648 5.46875 5.6666665 4294967295
-2.6264648 4.6875 6.3333335 4294967295
-2.6264648 3.90625 6.6666665 4294967295
-2.6264648 3.125 6.6666665 4294967295
-2.6264648 2.34375 7.3333335 4294967295
-2.6264648 1.5625 6.6666665 4294967295
-2.6264648 0.78125 6 4294967295
-2.6264648 0 6.3333335 4294967295
-2.6264648 -0.78125 6.3333335 4294967295
-2.6264648 -1.5625 6.6666665 4294967295
-2.6264648 -2.34375 6.6666665 4294967295
-2.6264648 -3.125 6.6666665 4294967295
-2.6264648 -3.90625 7.3333335 4294967295
-2.6264648 -4.6875 7.6666665 4294967295
-2.6264648 -5.46875 8.666667 4294967295
-2.6264648 -6.25 9.666667 4294967295
-2.6264648 -7.03125 11.333333 4294967295
-2.6264648 -7.8125 12 4294967295
-2.6264648 -8.59375 13 4294967295
-2.6264648 -9.375 13.333333 4294967295
-2.6264648 -10.15625 13 4294967295
-2.6264648 -10.9375 12.666667 4294967295
-2.6264648 -11.71875 12 4294967295
-2.6264648 -12.5 11 4294967295
-2.6264648 -13.28125 10 4294967295
-2.6264648 -14.0625 9.333333 4294967295
-2.6264648 -14.84375 8.666667 4294967295
-2.6264648 -15.625 8.333333 4294967295
-2.6264648 -16.40625 8.333333 4294967295
-2.6264648 -17.1875 8.333333 4294967295
-2.6264648 -17.96875 8.333333 4294967295
-2.6264648 -18.75 8.333333 4294967295
-2.6264648 -19.53125 8 4294967295
-2.6264648 -20.3125 7.6666665 4294967295
-2.6264648 -21.09375 7.3333335 4294967295
-2.6264648 -21.875 6.6666665 4294967295
-2.6264648 -22.65625 6.6666665 4294967295
-2.6264648 -23.4375 6.3333335 4294967295
-2.6264648 -24.21875 6 4294967295
-2.6264648 -25 6 4294967295
-2.6264648 -25.78125 6 4294967295
-2.6264648 -26.5625 6 4294967295
-2.6264648 -27.34375 6.3333335 4294967295
-2.6264648 -28.125 6.6666665 4294967295
-2.6264648 -28.90625 5.6666665 4294967295
-2.6264648 -29.6875 4.6666665 4294967295
-2.6264648 -30.46875 2.6666667 4294967295
-2.6264648 -31.25 -1 4294967295
-2.6264648 -32.03125 -3 4294967295
-2.6264648 -32.8125 -13.333333 4294967295
-2.6264648 -33.59375 -23.666666 4294967295
-2.6264648 -36.71875 -33.666668 4294967295
-2.6264648 -37.5 -33.666668 4294967295
-2.6264648 -38.28125 -33 4294967295
-2.6264648 -39.0625 -33.666668 4294967295
-2.6264648 -39.84375 -33.333332 4294967295
-2.6264648 -40.625 -33.666668 4294967295
-3.244091 50.78125 -33 4294967295
-3.244091 50 -8.666667 4294967295
-3.244091 49.21875 4.6666665 4294967295
-3.244091 48.4375 3.3333333 4294967295
-3.244091 47.65625 4 4294967295
-3.244091 46.875 5 4294967295
-3.244091 46.09375 5.3333335 4294967295
-3.244091 45.3125 6.3333335 4294967295
-3.244091 44.53125 6.3333335 4294967295
-3.244091 43.75 7.3333335 4294967295
-3.244091 42.96875 7.3333335 4294967295
-3.244091 42.1875 8.666667 4294967295
-3.244091 41.40625 8.666667 4294967295
-3.244091 40.625 9 4294967295
-3.244091 39.84375 8.666667 4294967295
-3.244091 39.0625 9.333333 4294967295
-3.244091 38.28125 9 4294967295
-3.244091 37.5 9.666667 4294967295
-3.244091 36.71875 9.666667 4294967295
-3.244091 35.9375 10.333333 4294967295
-3.244091 35.15625 10.666667 4294967295
-3.244091 34.375 11.666667 4294967295
-3.244091 33.59375 12 4294967295
-3.244091 32.8125 13.333333 4294967295
-3.244091 32.03125 13.333333 4294967295
-3.244091 31.25 14.666667 4294967295
-3.244091 30.46875 15 4294967295
-3.244091 29.6875 15.333333 4294967295
-3.244091 28.90625 15.666667 4294967295
-3.244091 28.125 15.666667 4294967295
-3.244091 27.34375 15.666667 4294967295
-3.244091 26.5625 16.333334 4294967295
-3.244091 25.78125 15.333333 4294967295
-3.244091 25 14.666667 4294967295
-3.244091 24.21875 13.666667 4294967295
-3.244091 23.4375 12 4294967295
-3.244091 22.65625 8.333333 4294967295
-3.244091 21.875 5.6666665 4294967295
-3.244091 21.09375 3.3333333 4294967295
-3.244091 20.3125 2 4294967295
-3.244091 19.53125 0.33333334 4294967295
-3.244091 18.75 -0.33333334 4294967295
-3.244091 17.96875 -2 4294967295
-3.244091 17.1875 -2 4294967295
-3.244091 16.40625 -1 4294967295
-3.244091 15.625 0.33333334 4294967295
-3.244091 14.84375 1 4294967295
-3.244091 14.0625 1 4294967295
-3.244091 13.28125 1.3333334 4294967295
-3.244091 12.5 2 4294967295
-3.244091 11.71875 1.3333334 4294967295
-3.244091 10.9375 2.3333333 4294967295
-3.244091 10.15625 2.6666667 4294967295
-3.244091 9.375 3 4294967295
-3.244091 8.59375 3.6666667 4294967295
-3.244091 7.8125 4 4294967295
-3.244091 7.03125 4.6666665 4294967295
-3.244091 6.25 5.3333335 4294967295
-3.244091 5.46875 5 4294967295
-3.244091 4.6875 5.6666665 4294967295
-3.244091 3.90625 5.6666665 4294967295
-3.244091 3.125 6.3333335 4294967295
-3.244091 2.34375 6.3333335 4294967295
-3.244091 1.5625 6.6666665 4294967295
-3.244091 0.78125 6.3333335 4294967295
-3.244091 0 6.6666665 4294967295
-3.244091 -0.78125 6 4294967295
-3.244091 -1.5625 6.6666665 4294967295
-3.244091 -2.34375 6.6666665 4294967295
-3.244091 -3.125 7.3333335 4294967295
-3.244091 -3.90625 7.3333335 4294967295
-3.244091 -4.6875 8.333333 4294967295
-3.244091 -5.46875 8.666667 4294967295
-3.244091 -6.25 10.333333 4294967295
-3.244091 -7.03125 11 4294967295
-3.244091 -7.8125 12 4294967295
-3.244091 -8.59375 12.666667 4294967295
-3.244091 -9.375 13 4294967295
-3.244091 -10.15625 12 4294967295
-3.244091 -10.9375 12 4294967295
-3.244091 -11.71875 11.333333 4294967295
-3.244091 -12.5 10.666667 4294967295
-3.244091 -13.28125 9.666667 4294967295
-3.244091 -14.0625 9 4294967295
-3.244091 -14.84375 8 4294967295
-3.244091 -15.625 8 4294967295
-3.244091 -16.40625 7.3333335 4294967295
-3.244091 -17.1875 7.6666665 4294967295
-3.244091 -17.96875 7.6666665 4294967295
-3.244091 -18.75 7.6666665 4294967295
-3.244091 -19.53125 7.3333335 4294967295
-3.244091 -20.3125 7.3333335 4294967295
-3.244091 -21.09375 6.6666665 4294967295
-3.244091 -21.875 6.3333335 4294967295
-3.244091 -22.65625 5.6666665 4294967295
-3.244091 -23.4375 5.3333335 4294967295
-3.244091 -24.21875 5 4294967295
-3.244091 -25 5 4294967295
-3.244091 -25.78125 4.6666665 4294967295
-3.244091 -26.5625 5.6666665 4294967295
-3.244091 -27.34375 5.3333335 4294967295
-3.244091 -28.125 5.6666665 4294967295
-3.244091 -28.90625 4.6666665 4294967295
-3.244091 -29.6875 4 4294967295
-3.244091 -30.46875 0.66666669 4294967295
-3.244091 -31.25 -2.3333333 4294967295
-3.244091 -32.03125 -6 4294967295
-3.244091 -32.8125 -18 4294967295
-3.244091 -33.59375 -31.666666 4294967295
-3.244091 -37.5 -33.666668 4294967295
-3.244091 -38.28125 -33.666668 4294967295
-3.8617172 52.34375 -33.666668 4294967295
-3.8617172 50 -10.333333 4294967295
-3.8617172 49.21875 -2 4294967295
-3.8617172 48.4375 2.6666667 4294967295
-3.8617172 47.65625 3.3333333 4294967295
-3.8617172 46.875 4.3333335 4294967295
-3.8617172 46.09375 5.3333335 4294967295
-3.8617172 45.3125 6 4294967295
-3.8617172 44.53125 6 4294967295
-3.8617172 43.75 6.3333335 4294967295
-3.8617172 42.96875 6.6666665 4294967295
-3.8617172 42.1875 7.6666665 4294967295
-3.8617172 41.40625 8.333333 4294967295
-3.8617172 40.625 8.333333 4294967295
-3.8617172 39.84375 8.333333 4294967295
-3.8617172 39.0625 8.666667 4294967295
-3.8617172 38.28125 8.666667 4294967295
-3.8617172 37.5 9 4294967295
-3.8617172 36.71875 9.333333 4294967295
-3.8617172 35.9375 9.666667 4294967295
-3.8617172 35.15625 10.333333 4294967295
-3.8617172 34.375 11 4294967295
-3.8617172 33.59375 11.666667 4294967295
-3.8617172 32.8125 12 4294967295
-3.8617172 32.03125 13.333333 4294967295
-3.8617172 31.25 13.666667 4294967295
-3.8617172 30.46875 14.333333 4294967295
-3.8617172 29.6875 14.666667 4294967295
-3.8617172 28.90625 14.666667 4294967295
-3.8617172 28.125 15 4294967295
-3.8617172 27.34375 15.333333 4294967295
-3.8617172 26.5625 15.333333 4294967295
-3.8617172 25.78125 15 4294967295
-3.8617172 25 14.666667 4294967295
-3.8617172 24.21875 13.333333 4294967295
-3.8617172 23.4375 12 4294967295
-3.8617172 22.65625 8.333333 4294967295
-3.8617172 21.875 5 4294967295
-3.8617172 21.09375 3.3333333 4294967295
-3.8617172 20.3125 1 4294967295
-3.8617172 19.53125 0.33333334 4294967295
-3.8617172 18.75 -0.33333334 4294967295
-3.8617172 17.96875 -2 4294967295
-3.8617172 17.1875 -1.3333334 4294967295
-3.8617172 16.40625 -1 4294967295
-3.8617172 15.625 0.33333334 4294967295
-3.8617172 14.84375 1 4294967295
-3.8617172 14.0625 1.3333334 4294967295
-3.8617172 13.28125 1.3333334 4294967295
-3.8617172 12.5 2 4294967295
-3.8617172 11.71875 1.3333334 4294967295
-3.8617172 10.9375 2 4294967295
-3.8617172 10.15625 1.3333334 4294967295
-3.8617172 9.375 2 4294967295
-3.8617172 8.59375 2.3333333 4294967295
-3.8617172 7.8125 3.3333333 4294967295
-3.8617172 7.03125 3.6666667 4294967295
-3.8617172 6.25 4.3333335 4294967295
-3.8617172 5.46875 4 4294967295
-3.8617172 4.6875 4.3333335 4294967295
-3.8617172 3.90625 5 4294967295
-3.8617172 3.125 5 4294967295
-3.8617172 2.34375 6 4294967295
-3.8617172 1.5625 6.3333335 4294967295
-3.8617172 0.78125 6.3333335 4294967295
-3.8617172 0 6.3333335 4294967295
-3.8617172 -0.78125 6 4294967295
-3.8617172 -1.5625 6 4294967295
-3.8617172 -2.34375 6.3333335 4294967295
-3.8617172 -3.125 6.6666665 4294967295
-3.8617172 -3.90625 6.6666665 4294967295
-3.8617172 -4.6875 7.3333335 4294967295
-3.8617172 -5.46875 8.333333 4294967295
-3.8617172 -6.25 9 4294967295
-3.8617172 -7.03125 10.333333 4294967295
-3.8617172 -7.8125 11 4294967295
-3.8617172 -8.59375 11.666667 4294967295
-3.8617172 -9.375 11.666667 4294967295
-3.8617172 -10.15625 12 4294967295
-3.8617172 -10.9375 11.333333 4294967295
-3.8617172 -11.71875 11 4294967295
-3.8617172 -12.5 10 4294967295
-3.8617172 -13.28125 9.333333 4294967295
-3.8617172 -14.0625 8 4294967295
-3.8617172 -14.84375 6.6666665 4294967295
-3.8617172 -15.625 6.6666665 4294967295
-3.8617172 -16.40625 6.3333335 4294967295
-3.8617172 -17.1875 6.3333335 4294967295
-3.8617172 -17.96875 6.6666665 4294967295
-3.8617172 -18.75 6.3333335 4294967295
-3.8617172 -19.53125 6.6666665 4294967295
-3.8617172 -20.3125 6.3333335 4294967295
-3.8617172 -21.09375 6 4294967295
-3.8617172 -21.875 5 4294967295
-3.8617172 -22.65625 5 4294967295
-3.8617172 -23.4375 4.3333335 4294967295
-3.8617172 -24.21875 4.3333335 4294967295
-3.8617172 -25 3.3333333 4294967295
-3.8617172 -25.78125 4 4294967295
-3.8617172 -26.5625 4 4294967295
-3.8617172 -27.34375 4.3333335 4294967295
-3.8617172 -28.125 4.6666665 4294967295
-3.8617172 -28.90625 3.6666667 4294967295
-3.8617172 -29.6875 1.3333334 4294967295
-3.8617172 -30.46875 -0.66666669 4294967295
-3.8617172 -31.25 -5.3333335 4294967295
-3.8617172 -32.03125 -13.333333 4294967295
-3.8617172 -32.8125 -27.666666 4294967295
-3.8617172 -35.15625 -33.666668 4294967295
-3.8617172 -36.71875 -33.666668 4294967295
-3.8617172 -38.28125 -33.333332 4294967295
-4.4793396 50 -15.333333 4294967295
-4.4793396 49.21875 -0.66666669 4294967295
-4.4793396 48.4375 2.3333333 4294967295
-4.4793396 47.65625 3.3333333 4294967295
-4.4793396 46.875 4.3333335 4294967295
-4.4793396 46.09375 4.3333335 4294967295
-4.4793396 45.3125 5.6666665 4294967295
-4.4793396 44.53125 5.6666665 4294967295
-4.4793396 43.75 6.6666665 4294967295
-4.4793396 42.96875 6.6666665 4294967295
-4.4793396 42.1875 7.6666665 4294967295
-4.4793396 41.40625 7.6666665 4294967295
-4.4793396 40.625 8 4294967295
-4.4793396 39.84375 8 4294967295
-4.4793396 39.0625 8.666667 4294967295
-4.4793396 38.28125 8.666667 4294967295
-4.4793396 37.5 9 4294967295
-4.4793396 36.71875 9 4294967295
-4.4793396 35.9375 10 4294967295
-4.4793396 35.15625 10 4294967295
-4.4793396 34.375 11 4294967295
-4.4793396 33.59375 11.666667 4294967295
-4.4793396 32.8125 12.666667 4294967295
-4.4793396 32.03125 13.333333 4294967295
-4.4793396 31.25 13.666667 4294967295
-4.4793396 30.46875 14 4294967295
-4.4793396 29.6875 14.666667 4294967295
-4.4793396 28.90625 14.333333 4294967295
-4.4793396 28.125 15.333333 4294967295
-4.4793396 27.34375 15.666667 4294967295
-4.4793396 26.5625 16.333334 4294967295
-4.4793396 25.78125 15.666667 4294967295
-4.4793396 25 15.333333 4294967295
-4.4793396 24.21875 13.666667 4294967295
-4.4793396 23.4375 12.666667 4294967295
-4.4793396 22.65625 9 4294967295
-4.4793396 21.875 6 4294967295
-4.4793396 21.09375 3.3333333 4294967295
-4.4793396 20.3125 2 4294967295
-4.4793396 19.53125 0.66666669 4294967295
-4.4793396 18.75 0 4294967295
-4.4793396 17.96875 -1.3333334 4294967295
-4.4793396 17.1875 -0.66666669 4294967295
-4.4793396 16.40625 -1 4294967295
-4.4793396 15.625 0.33333334 4294967295
-4.4793396 14.84375 1.3333334 4294967295
-4.4793396 14.0625 1.3333334 4294967295
-4.4793396 13.28125 2 4294967295
-4.4793396 12.5 2.3333333 4294967295
-4.4793396 11.71875 2 4294967295
-4.4793396 10.9375 2 4294967295
-4.4793396 10.15625 1.3333334 4294967295
-4.4793396 9.375 2 4294967295
-4.4793396 8.59375 2 4294967295
-4.4793396 7.8125 3.3333333 4294967295
-4.4793396 7.03125 3.3333333 4294967295
-4.4793396 6.25 4 4294967295
-4.4793396 5.46875 4 4294967295
-4.4793396 4.6875 4.3333335 4294967295
-4.4793396 3.90625 4.6666665 4294967295
-4.4793396 3.125 5.3333335 4294967295
-4.4793396 2.34375 5.6666665 4294967295
-4.4793396 1.5625 6.6666665 4294967295
-4.4793396 0.78125 6 4294967295
-4.4793396 0 6.3333335 4294967295
-4.4793396 -0.78125 6 4294967295
-4.4793396 -1.5625 6.6666665 4294967295
-4.4793396 -2.34375 6 4294967295
-4.4793396 -3.125 6.6666665 4294967295
