# .PCD v0.7 - Point Cloud Data file format
VERSION 0.7
FIELDS x y z rgba
SIZE 4 4 4 4
TYPE F F F U
COUNT 1 1 1 1
WIDTH 1212
HEIGHT 1
VIEWPOINT 0 0 0 1 0 0 0
POINTS 1212
DATA ascii
-6.3550911 -31.481483 14 4294967295
-6.3550911 -32.40741 13.333333 4294967295
-6.3550911 -33.333336 12 4294967295
-6.3550911 -34.259262 11 4294967295
-6.3550911 -35.185188 10.333333 4294967295
-6.3550911 -36.111115 10.333333 4294967295
-6.3550911 -37.037041 10.333333 4294967295
-6.3550911 -37.962959 11 4294967295
-6.3550911 -38.888885 11 4294967295
-6.3550911 -39.814812 11.333333 4294967295
-6.3550911 -40.740738 11.333333 4294967295
-6.3550911 -41.666664 11.333333 4294967295
-6.3550911 -42.59259 11.333333 4294967295
-6.3550911 -43.518517 11.666667 4294967295
-6.3550911 -44.444443 10.666667 4294967295
-6.3550911 -45.370369 9.333333 4294967295
-6.3550911 -46.296295 8 4294967295
-6.3550911 -47.222221 6.3333335 4294967295
-6.3550911 -48.148148 4.6666665 4294967295
-6.3550911 -49.074074 -1.3333334 4294967295
-6.3550911 -50 -10.666667 4294967295
-7.0870895 52.777779 -33.666668 4294967295
-7.0870895 50.925926 -14.666667 4294967295
-7.0870895 50 3.6666667 4294967295
-7.0870895 49.074074 4 4294967295
-7.0870895 48.148148 4.6666665 4294967295
-7.0870895 47.222221 5 4294967295
-7.0870895 46.296295 5.6666665 4294967295
-7.0870895 45.370369 6.3333335 4294967295
-7.0870895 44.444443 7.6666665 4294967295
-7.0870895 43.518517 8.333333 4294967295
-7.0870895 42.592594 9.333333 4294967295
-7.0870895 41.666668 9.666667 4294967295
-7.0870895 40.740742 10.333333 4294967295
-7.0870895 39.814816 10 4294967295
-7.0870895 38.888889 10.666667 4294967295
-7.0870895 37.962963 10.666667 4294967295
-7.0870895 37.037037 11.666667 4294967295
-7.0870895 36.111111 11.333333 4294967295
-7.0870895 35.185184 12 4294967295
-7.0870895 34.259258 12 4294967295
-7.0870895 33.333336 12 4294967295
-7.0870895 32.40741 12.666667 4294967295
-7.0870895 31.481482 13.666667 4294967295
-7.0870895 30.555555 14 4294967295
-7.0870895 29.629629 15.333333 4294967295
-7.0870895 28.703703 15.666667 4294967295
-7.0870895 27.777779 16.666666 4294967295
-7.0870895 26.851852 16.666666 4294967295
-7.0870895 25.925926 17.333334 4294967295
-7.0870895 25 17.333334 4294967295
-7.0870895 24.074074 17.333334 4294967295
-7.0870895 23.148148 17 4294967295
-7.0870895 22.222221 17 4294967295
-7.0870895 21.296297 15.666667 4294967295
-7.0870895 20.370371 15.333333 4294967295
-7.0870895 19.444445 14 4294967295
-7.0870895 18.518518 13 4294967295
-7.0870895 17.592594 10.333333 4294967295
-7.0870895 16.666668 8.333333 4294967295
-7.0870895 15.740742 4.6666665 4294967295
-7.0870895 14.814816 2 4294967295
-7.0870895 13.888889 0.66666669 4294967295
-7.0870895 12.962963 -0.33333334 4294967295
-7.0870895 12.037037 -0.33333334 4294967295
-7.0870895 11.111111 0 4294967295
-7.0870895 10.185184 -1 4294967295
-7.0870895 9.2592583 0.33333334 4294967295
-7.0870895 8.3333321 1.3333334 4294967295
-7.0870895 7.4074059 3 4294967295
-7.0870895 6.4814796 3.6666667 4294967295
-7.0870895 5.5555573 6 4294967295
-7.0870895 4.629631 6.6666665 4294967295
-7.0870895 3.7037048 8.333333 4294967295
-7.0870895 2.7777786 8.666667 4294967295
-7.0870895 1.8518524 10.333333 4294967295
-7.0870895 0.92592621 10.666667 4294967295
-7.0870895 0 12 4294967295
-7.0870895 -0.92592621 12 4294967295
-7.0870895 -1.8518524 13 4294967295
-7.0870895 -2.7777786 12.666667 4294967295
-7.0870895 -3.7037048 13.333333 4294967295
-7.0870895 -4.629631 13.333333 4294967295
-7.0870895 -5.5555573 15.333333 4294967295
-7.0870895 -6.4814796 17 4294967295
-7.0870895 -7.4074059 20 4294967295
-7.0870895 -8.3333321 20.333334 4294967295
-7.0870895 -9.2592583 17.333334 4294967295
-7.0870895 -10.185184 14 4294967295
-7.0870895 -11.111111 12.666667 4294967295
-7.0870895 -12.037037 11.333333 4294967295
-7.0870895 -12.962963 11.666667 4294967295
-7.0870895 -13.888889 11 4294967295
-7.0870895 -14.814812 11.333333 4294967295
-7.0870895 -15.740738 12.666667 4294967295
-7.0870895 -16.666664 13.666667 4294967295
-7.0870895 -17.59259 14.666667 4294967295
-7.0870895 -18.518517 16.333334 4294967295
-7.0870895 -19.444443 16.666666 4294967295
-7.0870895 -20.370369 17.333334 4294967295
-7.0870895 -21.296295 17 4294967295
-7.0870895 -22.222221 17 4294967295
-7.0870895 -23.148148 16 4294967295
-7.0870895 -24.074074 15.666667 4294967295
-7.0870895 -25 14.666667 4294967295
-7.0870895 -25.925926 14.666667 4294967295
-7.0870895 -26.851852 14 4294967295
-7.0870895 -27.777779 14.666667 4294967295
-7.0870895 -28.703705 14 4294967295
-7.0870895 -29.629631 14.333333 4294967295
-7.0870895 -30.555557 13.666667 4294967295
-7.0870895 -31.481483 13.666667 4294967295
-7.0870895 -32.40741 12.666667 4294967295
-7.0870895 -33.333336 12 4294967295
-7.0870895 -34.259262 11 4294967295
-7.0870895 -35.185188 10.666667 4294967295
-7.0870895 -36.111115 10 4294967295
-7.0870895 -37.037041 10.333333 4294967295
-7.0870895 -37.962959 10.333333 4294967295
-7.0870895 -38.888885 10.666667 4294967295
-7.0870895 -39.814812 10 4294967295
-7.0870895 -40.740738 10.666667 4294967295
-7.0870895 -41.666664 10.333333 4294967295
-7.0870895 -42.59259 11 4294967295
-7.0870895 -43.518517 11 4294967295
-7.0870895 -44.444443 10.333333 4294967295
-7.0870895 -45.370369 9 4294967295
-7.0870895 -46.296295 8 4294967295
-7.0870895 -47.222221 6 4294967295
-7.0870895 -48.148148 5 4294967295
-7.0870895 -49.074074 1 4294967295
-7.0870895 -50 -16.333334 4294967295
-7.819088 50.925926 -20 4294967295
-7.819088 50 2.6666667 4294967295
-7.819088 49.074074 3 4294967295
-7.819088 48.148148 4.6666665 4294967295
-7.819088 47.222221 4.3333335 4294967295
-7.819088 46.296295 5 4294967295
-7.819088 45.370369 5.6666665 4294967295
-7.819088 44.444443 7.3333335 4294967295
-7.819088 43.518517 8 4294967295
-7.819088 42.592594 8.666667 4294967295
-7.819088 41.666668 9.333333 4294967295
-7.819088 40.740742 9.666667 4294967295
-7.819088 39.814816 10 4294967295
-7.819088 38.888889 10 4294967295
-7.819088 37.962963 10.666667 4294967295
-7.819088 37.037037 10.666667 4294967295
-7.819088 36.111111 11 4294967295
-7.819088 35.185184 11.333333 4294967295
-7.819088 34.259258 11.333333 4294967295
-7.819088 33.333336 11.666667 4294967295
-7.819088 32.40741 12 4294967295
-7.819088 31.481482 13 4294967295
-7.819088 30.555555 14 4294967295
-7.819088 29.629629 14.666667 4294967295
-7.819088 28.703703 15.333333 4294967295
-7.819088 27.777779 15.666667 4294967295
-7.819088 26.851852 16 4294967295
-7.819088 25.925926 16.333334 4294967295
-7.819088 25 17 4294967295
-7.819088 24.074074 17 4294967295
-7.819088 23.148148 17 4294967295
-7.819088 22.222221 16.333334 4294967295
-7.819088 21.296297 15.333333 4294967295
-7.819088 20.370371 14.333333 4294967295
-7.819088 19.444445 13.333333 4294967295
-7.819088 18.518518 11.666667 4294967295
-7.819088 17.592594 9.333333 4294967295
-7.819088 16.666668 6.6666665 4294967295
-7.819088 15.740742 4 4294967295
-7.819088 14.814816 1.3333334 4294967295
-7.819088 13.888889 0 4294967295
-7.819088 12.962963 -1 4294967295
-7.819088 12.037037 -2 4294967295
-7.819088 11.111111 -2 4294967295
-7.819088 10.185184 -1.3333334 4294967295
-7.819088 9.2592583 -0.33333334 4294967295
-7.819088 8.3333321 0.66666669 4294967295
-7.819088 7.4074059 1.3333334 4294967295
-7.819088 6.4814796 2.6666667 4294967295
-7.819088 5.5555573 3.6666667 4294967295
-7.819088 4.629631 5 4294967295
-7.819088 3.7037048 6 4294967295
-7.819088 2.7777786 6.6666665 4294967295
-7.819088 1.8518524 7.6666665 4294967295
-7.819088 0.92592621 8.333333 4294967295
-7.819088 0 9.333333 4294967295
-7.819088 -0.92592621 9.666667 4294967295
-7.819088 -1.8518524 10 4294967295
-7.819088 -2.7777786 10.666667 4294967295
-7.819088 -3.7037048 11 4294967295
-7.819088 -4.629631 11 4294967295
-7.819088 -5.5555573 11.666667 4294967295
-7.819088 -6.4814796 12.666667 4294967295
-7.819088 -7.4074059 14 4294967295
-7.819088 -8.3333321 15.666667 4294967295
-7.819088 -9.2592583 13.666667 4294967295
-7.819088 -10.185184 10.333333 4294967295
-7.819088 -11.111111 9.666667 4294967295
-7.819088 -12.037037 10 4294967295
-7.819088 -12.962963 10.333333 4294967295
-7.819088 -13.888889 11 4294967295
-7.819088 -14.814812 10.333333 4294967295
-7.819088 -15.740738 11.666667 4294967295
-7.819088 -16.666664 12 4294967295
-7.819088 -17.59259 13.666667 4294967295
-7.819088 -18.518517 15 4294967295
-7.819088 -19.444443 16 4294967295
-7.819088 -20.370369 16 4294967295
-7.819088 -21.296295 16.333334 4294967295
-7.819088 -22.222221 15.666667 4294967295
-7.819088 -23.148148 15.333333 4294967295
-7.819088 -24.074074 14.333333 4294967295
-7.819088 -25 13.666667 4294967295
-7.819088 -25.925926 13.333333 4294967295
-7.819088 -26.851852 13 4294967295
-7.819088 -27.777779 13 4294967295
-7.819088 -28.703705 13.333333 4294967295
-7.819088 -29.629631 12.666667 4294967295
-7.819088 -30.555557 12.666667 4294967295
-7.819088 -31.481483 12 4294967295
-7.819088 -32.40741 11.666667 4294967295
-7.819088 -33.333336 10.666667 4294967295
-7.819088 -34.259262 10 4294967295
-7.819088 -35.185188 9.333333 4294967295
-7.819088 -36.111115 9.333333 4294967295
-7.819088 -37.037041 9.666667 4294967295
-7.819088 -37.962959 9.666667 4294967295
-7.819088 -38.888885 9.666667 4294967295
-7.819088 -39.814812 9.333333 4294967295
-7.819088 -40.740738 9.333333 4294967295
-7.819088 -41.666664 9.666667 4294967295
-7.819088 -42.59259 10 4294967295
-7.819088 -43.518517 10.333333 4294967295
-7.819088 -44.444443 9.333333 4294967295
-7.819088 -45.370369 8.333333 4294967295
-7.819088 -46.296295 6.6666665 4294967295
-7.819088 -47.222221 4.6666665 4294967295
-7.819088 -48.148148 2 4294967295
-7.819088 -49.074074 -3.3333333 4294967295
-7.819088 -50 -16.666666 4294967295
-8.5510864 50.925926 -29 4294967295
-8.5510864 50 0 4294967295
-8.5510864 49.074074 6 4294967295
-8.5510864 48.148148 4.3333335 4294967295
-8.5510864 47.222221 4 4294967295
-8.5510864 46.296295 5 4294967295
-8.5510864 45.370369 5.6666665 4294967295
-8.5510864 44.444443 7.3333335 4294967295
-8.5510864 43.518517 7.6666665 4294967295
-8.5510864 42.592594 8.666667 4294967295
-8.5510864 41.666668 9.333333 4294967295
-8.5510864 40.740742 9.666667 4294967295
-8.5510864 39.814816 9.666667 4294967295
-8.5510864 38.888889 10.333333 4294967295
-8.5510864 37.962963 10 4294967295
-8.5510864 37.037037 10.666667 4294967295
-8.5510864 36.111111 10.666667 4294967295
-8.5510864 35.185184 11.333333 4294967295
-8.5510864 34.259258 11.333333 4294967295
-8.5510864 33.333336 12 4294967295
-8.5510864 32.40741 12 4294967295
-8.5510864 31.481482 13.333333 4294967295
-8.5510864 30.555555 13.666667 4294967295
-8.5510864 29.629629 14.666667 4294967295
-8.5510864 28.703703 15 4294967295
-8.5510864 27.777779 16 4294967295
-8.5510864 26.851852 16 4294967295
-8.5510864 25.925926 16.666666 4294967295
-8.5510864 25 16.666666 4294967295
-8.5510864 24.074074 17.333334 4294967295
-8.5510864 23.148148 17 4294967295
-8.5510864 22.222221 16.666666 4294967295
-8.5510864 21.296297 15.333333 4294967295
-8.5510864 20.370371 14.666667 4294967295
-8.5510864 19.444445 13.333333 4294967295
-8.5510864 18.518518 11.666667 4294967295
-8.5510864 17.592594 9 4294967295
-8.5510864 16.666668 6.6666665 4294967295
-8.5510864 15.740742 3.6666667 4294967295
-8.5510864 14.814816 1 4294967295
-8.5510864 13.888889 -0.33333334 4294967295
-8.5510864 12.962963 -1 4294967295
-8.5510864 12.037037 -2 4294967295
-8.5510864 11.111111 -2 4294967295
-8.5510864 10.185184 -2 4294967295
-8.5510864 9.2592583 -0.66666669 4294967295
-8.5510864 8.3333321 0.33333334 4294967295
-8.5510864 7.4074059 1 4294967295
-8.5510864 6.4814796 2 4294967295
-8.5510864 5.5555573 3 4294967295
-8.5510864 4.629631 3.6666667 4294967295
-8.5510864 3.7037048 5 4294967295
-8.5510864 2.7777786 5.6666665 4294967295
-8.5510864 1.8518524 6.6666665 4294967295
-8.5510864 0.92592621 6.6666665 4294967295
-8.5510864 0 8.666667 4294967295
-8.5510864 -0.92592621 8 4294967295
-8.5510864 -1.8518524 9 4294967295
-8.5510864 -2.7777786 9.333333 4294967295
-8.5510864 -3.7037048 10.333333 4294967295
-8.5510864 -4.629631 10.333333 4294967295
-8.5510864 -5.5555573 10.666667 4294967295
-8.5510864 -6.4814796 10.333333 4294967295
-8.5510864 -7.4074059 11 4294967295
-8.5510864 -8.3333321 12 4294967295
-8.5510864 -9.2592583 12 4294967295
-8.5510864 -10.185184 8.666667 4294967295
-8.5510864 -11.111111 9 4294967295
-8.5510864 -12.037037 8.666667 4294967295
-8.5510864 -12.962963 10 4294967295
-8.5510864 -13.888889 9.333333 4294967295
-8.5510864 -14.814812 10.333333 4294967295
-8.5510864 -15.740738 10.333333 4294967295
-8.5510864 -16.666664 12 4294967295
-8.5510864 -17.59259 12.666667 4294967295
-8.5510864 -18.518517 14.666667 4294967295
-8.5510864 -19.444443 15 4294967295
-8.5510864 -20.370369 15.666667 4294967295
-8.5510864 -21.296295 16 4294967295
-8.5510864 -22.222221 15.666667 4294967295
-8.5510864 -23.148148 14.666667 4294967295
-8.5510864 -24.074074 14 4294967295
-8.5510864 -25 13 4294967295
-8.5510864 -25.925926 13 4294967295
-8.5510864 -26.851852 12 4294967295
-8.5510864 -27.777779 12.666667 4294967295
-8.5510864 -28.703705 12 4294967295
-8.5510864 -29.629631 12 4294967295
-8.5510864 -30.555557 11.666667 4294967295
-8.5510864 -31.481483 11.333333 4294967295
-8.5510864 -32.40741 11 4294967295
-8.5510864 -33.333336 10.333333 4294967295
-8.5510864 -34.259262 9.666667 4294967295
-8.5510864 -35.185188 9.333333 4294967295
-8.5510864 -36.111115 8.666667 4294967295
-8.5510864 -37.037041 9 4294967295
-8.5510864 -37.962959 9 4294967295
-8.5510864 -38.888885 9 4294967295
-8.5510864 -39.814812 8.333333 4294967295
-8.5510864 -40.740738 9 4294967295
-8.5510864 -41.666664 9 4294967295
-8.5510864 -42.59259 9.666667 4294967295
-8.5510864 -43.518517 9.333333 4294967295
-8.5510864 -44.444443 8.666667 4294967295
-8.5510864 -45.370369 7.3333335 4294967295
-8.5510864 -46.296295 6 4294967295
-8.5510864 -47.222221 4 4294967295
-8.5510864 -48.148148 2 4294967295
-8.5510864 -49.074074 -7.6666665 4294967295
-8.5510864 -50 -23.666666 4294967295
-9.2830887 50.925926 -26.666666 4294967295
-9.2830887 50 -4 4294967295
-9.2830887 49.074074 3.6666667 4294967295
-9.2830887 48.148148 4 4294967295
-9.2830887 47.222221 4 4294967295
-9.2830887 46.296295 4.6666665 4294967295
-9.2830887 45.370369 5.6666665 4294967295
-9.2830887 44.444443 6.6666665 4294967295
-9.2830887 43.518517 7.3333335 4294967295
-9.2830887 42.592594 8 4294967295
-9.2830887 41.666668 8.666667 4294967295
-9.2830887 40.740742 9 4294967295
-9.2830887 39.814816 9.333333 4294967295
-9.2830887 38.888889 9.333333 4294967295
-9.2830887 37.962963 9.666667 4294967295
-9.2830887 37.037037 10 4294967295
-9.2830887 36.111111 10 4294967295
-9.2830887 35.185184 10.333333 4294967295
-9.2830887 34.259258 10.666667 4294967295
-9.2830887 33.333336 11 4294967295
-9.2830887 32.40741 11.666667 4294967295
-9.2830887 31.481482 12 4294967295
-9.2830887 30.555555 13 4294967295
-9.2830887 29.629629 13.666667 4294967295
-9.2830887 28.703703 14.333333 4294967295
-9.2830887 27.777779 15 4294967295
-9.2830887 26.851852 15.333333 4294967295
-9.2830887 25.925926 16 4294967295
-9.2830887 25 16 4294967295
-9.2830887 24.074074 16.333334 4294967295
-9.2830887 23.148148 16.333334 4294967295
-9.2830887 22.222221 15.666667 4294967295
-9.2830887 21.296297 15 4294967295
-9.2830887 20.370371 14 4294967295
-9.2830887 19.444445 13 4294967295
-9.2830887 18.518518 11.333333 4294967295
-9.2830887 17.592594 9 4294967295
-9.2830887 16.666668 6 4294967295
-9.2830887 15.740742 3 4294967295
-9.2830887 14.814816 0.66666669 4294967295
-9.2830887 13.888889 -0.66666669 4294967295
-9.2830887 12.962963 -2 4294967295
-9.2830887 12.037037 -2.6666667 4294967295
-9.2830887 11.111111 -3 4294967295
-9.2830887 10.185184 -2.6666667 4294967295
-9.2830887 9.2592583 -1 4294967295
-9.2830887 8.3333321 0 4294967295
-9.2830887 7.4074059 0.33333334 4294967295
-9.2830887 6.4814796 1 4294967295
-9.2830887 5.5555573 1.3333334 4294967295
-9.2830887 4.629631 2.6666667 4294967295
-9.2830887 3.7037048 3.6666667 4294967295
-9.2830887 2.7777786 4 4294967295
-9.2830887 1.8518524 4.6666665 4294967295
-9.2830887 0.92592621 5 4294967295
-9.2830887 0 5.6666665 4294967295
-9.2830887 -0.92592621 6.6666665 4294967295
-9.2830887 -1.8518524 7.3333335 4294967295
-9.2830887 -2.7777786 8 4294967295
-9.2830887 -3.7037048 8.333333 4294967295
-9.2830887 -4.629631 9 4294967295
-9.2830887 -5.5555573 8.666667 4294967295
-9.2830887 -6.4814796 8.666667 4294967295
-9.2830887 -7.4074059 8.666667 4294967295
-9.2830887 -8.3333321 8.666667 4294967295
-9.2830887 -9.2592583 8.333333 4294967295
-9.2830887 -10.185184 7.3333335 4294967295
-9.2830887 -11.111111 7.3333335 4294967295
-9.2830887 -12.037037 8 4294967295
-9.2830887 -12.962963 8.333333 4294967295
-9.2830887 -13.888889 8.666667 4294967295
-9.2830887 -14.814812 9 4294967295
-9.2830887 -15.740738 10 4294967295
-9.2830887 -16.666664 10.666667 4294967295
-9.2830887 -17.59259 12 4294967295
-9.2830887 -18.518517 13.666667 4294967295
-9.2830887 -19.444443 14.333333 4294967295
-9.2830887 -20.370369 14.666667 4294967295
-9.2830887 -21.296295 14.666667 4294967295
-9.2830887 -22.222221 14.333333 4294967295
-9.2830887 -23.148148 14 4294967295
-9.2830887 -24.074074 12.666667 4294967295
-9.2830887 -25 12 4294967295
-9.2830887 -25.925926 11.333333 4294967295
-9.2830887 -26.851852 11 4294967295
-9.2830887 -27.777779 11 4294967295
-9.2830887 -28.703705 10.666667 4294967295
-9.2830887 -29.629631 10.666667 4294967295
-9.2830887 -30.555557 10.333333 4294967295
-9.2830887 -31.481483 10 4294967295
-9.2830887 -32.40741 9.666667 4294967295
-9.2830887 -33.333336 9.333333 4294967295
-9.2830887 -34.259262 8.666667 4294967295
-9.2830887 -35.185188 8 4294967295
-9.2830887 -36.111115 8 4294967295
-9.2830887 -37.037041 8 4294967295
-9.2830887 -37.962959 8 4294967295
-9.2830887 -38.888885 8 4294967295
-9.2830887 -39.814812 7.3333335 4294967295
-9.2830887 -40.740738 7.6666665 4294967295
-9.2830887 -41.666664 8 4294967295
-9.2830887 -42.59259 8.333333 4294967295
-9.2830887 -43.518517 8 4294967295
-9.2830887 -44.444443 7.3333335 4294967295
-9.2830887 -45.370369 5.6666665 4294967295
-9.2830887 -46.296295 3.6666667 4294967295
-9.2830887 -47.222221 1.3333334 4294967295
-9.2830887 -48.148148 -2.3333333 4294967295
-9.2830887 -49.074074 -10.333333 4294967295
-9.2830887 -56.481483 -33.666668 4294967295
-10.015091 50.925926 -30.666666 4294967295
-10.015091 50 -5.3333335 4294967295
-10.015091 49.074074 0.33333334 4294967295
-10.015091 48.148148 3.6666667 4294967295
-10.015091 47.222221 4.3333335 4294967295
-10.015091 46.296295 5.3333335 4294967295
-10.015091 45.370369 5.6666665 4294967295
-10.015091 44.444443 6.6666665 4294967295
-10.015091 43.518517 6.6666665 4294967295
-10.015091 42.592594 8 4294967295
-10.015091 41.666668 8.333333 4294967295
-10.015091 40.740742 9 4294967295
-10.015091 39.814816 9.333333 4294967295
-10.015091 38.888889 9.666667 4294967295
-10.015091 37.962963 9.333333 4294967295
-10.015091 37.037037 10 4294967295
-10.015091 36.111111 9.666667 4294967295
-10.015091 35.185184 10.333333 4294967295
-10.015091 34.259258 10.333333 4294967295
-10.015091 33.333336 11 4294967295
-10.015091 32.40741 11.333333 4294967295
-10.015091 31.481482 12 4294967295
-10.015091 30.555555 12 4294967295
-10.015091 29.629629 13.666667 4294967295
-10.015091 28.703703 13.666667 4294967295
-10.015091 27.777779 15 4294967295
-10.015091 26.851852 15 4294967295
-10.015091 25.925926 15.666667 4294967295
-10.015091 25 16 4294967295
-10.015091 24.074074 16.333334 4294967295
-10.015091 23.148148 16 4294967295
-10.015091 22.222221 16 4294967295
-10.015091 21.296297 15 4294967295
-10.015091 20.370371 14.666667 4294967295
-10.015091 19.444445 13.333333 4294967295
-10.015091 18.518518 11.666667 4294967295
-10.015091 17.592594 8.666667 4294967295
-10.015091 16.666668 6 4294967295
-10.015091 15.740742 2.6666667 4294967295
-10.015091 14.814816 1.3333334 4294967295
-10.015091 13.888889 -1 4294967295
-10.015091 12.962963 -2 4294967295
-10.015091 12.037037 -2.3333333 4294967295
-10.015091 11.111111 -2.6666667 4294967295
-10.015091 10.185184 -2 4294967295
-10.015091 9.2592583 -0.33333334 4294967295
-10.015091 8.3333321 0 4294967295
-10.015091 7.4074059 0.33333334 4294967295
-10.015091 6.4814796 1 4294967295
-10.015091 5.5555573 1.3333334 4294967295
-10.015091 4.629631 2 4294967295
-10.015091 3.7037048 3 4294967295
-10.015091 2.7777786 3.6666667 4294967295
-10.015091 1.8518524 4.3333335 4294967295
-10.015091 0.92592621 4.6666665 4294967295
-10.015091 0 5 4294967295
-10.015091 -0.92592621 6 4294967295
-10.015091 -1.8518524 6.6666665 4294967295
-10.015091 -2.7777786 6.6666665 4294967295
-10.015091 -3.7037048 7.6666665 4294967295
-10.015091 -4.629631 8 4294967295
-10.015091 -5.5555573 8 4294967295
-10.015091 -6.4814796 8 4294967295
-10.015091 -7.4074059 8 4294967295
-10.015091 -8.3333321 6.6666665 4294967295
-10.015091 -9.2592583 6.6666665 4294967295
-10.015091 -10.185184 6.6666665 4294967295
-10.015091 -11.111111 7.3333335 4294967295
-10.015091 -12.037037 8 4294967295
-10.015091 -12.962963 8.333333 4294967295
-10.015091 -13.888889 8.333333 4294967295
-10.015091 -14.814812 8.666667 4294967295
-10.015091 -15.740738 9.333333 4294967295
-10.015091 -16.666664 10.666667 4294967295
-10.015091 -17.59259 11.666667 4294967295
-10.015091 -18.518517 13.333333 4294967295
-10.015091 -19.444443 13.666667 4294967295
-10.015091 -20.370369 14.333333 4294967295
-10.015091 -21.296295 14.333333 4294967295
-10.015091 -22.222221 14 4294967295
-10.015091 -23.148148 13 4294967295
-10.015091 -24.074074 12 4294967295
-10.015091 -25 11 4294967295
-10.015091 -25.925926 10.666667 4294967295
-10.015091 -26.851852 9.666667 4294967295
-10.015091 -27.777779 10 4294967295
-10.015091 -28.703705 9.333333 4294967295
-10.015091 -29.629631 10 4294967295
-10.015091 -30.555557 9.333333 4294967295
-10.015091 -31.481483 9.666667 4294967295
-10.015091 -32.40741 9 4294967295
-10.015091 -33.333336 9 4294967295
-10.015091 -34.259262 8 4294967295
-10.015091 -35.185188 8 4294967295
-10.015091 -36.111115 7.3333335 4294967295
-10.015091 -37.037041 7.3333335 4294967295
-10.015091 -37.962959 7.6666665 4294967295
-10.015091 -38.888885 7.3333335 4294967295
-10.015091 -39.814812 6.6666665 4294967295
-10.015091 -40.740738 7.3333335 4294967295
-10.015091 -41.666664 7.3333335 4294967295
-10.015091 -42.59259 7.3333335 4294967295
-10.015091 -43.518517 6.6666665 4294967295
-10.015091 -44.444443 6 4294967295
-10.015091 -45.370369 4.3333335 4294967295
-10.015091 -46.296295 2.3333333 4294967295
-10.015091 -47.222221 -1 4294967295
-10.015091 -48.148148 -9 4294967295
-10.015091 -49.074074 -22.333334 4294967295
-10.015091 -52.777779 -33.666668 4294967295
-10.747086 50.925926 -32.666668 4294967295
-10.747086 50 -11.333333 4294967295
-10.747086 49.074074 2.6666667 4294967295
-10.747086 48.148148 4 4294967295
-10.747086 47.222221 3.6666667 4294967295
-10.747086 46.296295 5 4294967295
-10.747086 45.370369 6 4294967295
-10.747086 44.444443 6.6666665 4294967295
-10.747086 43.518517 6.6666665 4294967295
-10.747086 42.592594 7.3333335 4294967295
-10.747086 41.666668 8 4294967295
-10.747086 40.740742 8.666667 4294967295
-10.747086 39.814816 9 4294967295
-10.747086 38.888889 9 4294967295
-10.747086 37.962963 9 4294967295
-10.747086 37.037037 9.333333 4294967295
-10.747086 36.111111 9.333333 4294967295
-10.747086 35.185184 9.666667 4294967295
-10.747086 34.259258 10 4294967295
-10.747086 33.333336 10.333333 4294967295
-10.747086 32.40741 10.666667 4294967295
-10.747086 31.481482 11.333333 4294967295
-10.747086 30.555555 12 4294967295
-10.747086 29.629629 12.666667 4294967295
-10.747086 28.703703 13.666667 4294967295
-10.747086 27.777779 14.333333 4294967295
-10.747086 26.851852 15 4294967295
-10.747086 25.925926 15.333333 4294967295
-10.747086 25 15.333333 4294967295
-10.747086 24.074074 15.666667 4294967295
-10.747086 23.148148 15.666667 4294967295
-10.747086 22.222221 15.333333 4294967295
-10.747086 21.296297 15 4294967295
-10.747086 20.370371 14 4294967295
-10.747086 19.444445 13.333333 4294967295
-10.747086 18.518518 11.333333 4294967295
-10.747086 17.592594 8.666667 4294967295
-10.747086 16.666668 6 4294967295
-10.747086 15.740742 2.6666667 4294967295
-10.747086 14.814816 0.66666669 4294967295
-10.747086 13.888889 -0.33333334 4294967295
-10.747086 12.962963 -1 4294967295
-10.747086 12.037037 -2.3333333 4294967295
-10.747086 11.111111 -2.6666667 4294967295
-10.747086 10.185184 -2 4294967295
-10.747086 9.2592583 -0.66666669 4294967295
-10.747086 8.3333321 0.33333334 4294967295
-10.747086 7.4074059 0.66666669 4294967295
-10.747086 6.4814796 1.3333334 4294967295
-10.747086 5.5555573 1.3333334 4294967295
-10.747086 4.629631 1.3333334 4294967295
-10.747086 3.7037048 2.6666667 4294967295
-10.747086 2.7777786 3 4294967295
-10.747086 1.8518524 3 4294967295
-10.747086 0.92592621 4 4294967295
-10.747086 0 4.3333335 4294967295
-10.747086 -0.92592621 5 4294967295
-10.747086 -1.8518524 5.6666665 4294967295
-10.747086 -2.7777786 5.6666665 4294967295
-10.747086 -3.7037048 6.3333335 4294967295
-10.747086 -4.629631 6.6666665 4294967295
-10.747086 -5.5555573 6.6666665 4294967295
-10.747086 -6.4814796 7.3333335 4294967295
-10.747086 -7.4074059 6.6666665 4294967295
-10.747086 -8.3333321 6 4294967295
-10.747086 -9.2592583 6.3333335 4294967295
-10.747086 -10.185184 6.3333335 4294967295
-10.747086 -11.111111 6.6666665 4294967295
-10.747086 -12.037037 6.6666665 4294967295
-10.747086 -12.962963 6.6666665 4294967295
-10.747086 -13.888889 7.3333335 4294967295
-10.747086 -14.814812 7.6666665 4294967295
-10.747086 -15.740738 8.666667 4294967295
-10.747086 -16.666664 9.666667 4294967295
-10.747086 -17.59259 11.333333 4294967295
-10.747086 -18.518517 12 4294967295
-10.747086 -19.444443 13 4294967295
-10.747086 -20.370369 13.333333 4294967295
-10.747086 -21.296295 13 4294967295
-10.747086 -22.222221 12.666667 4294967295
-10.747086 -23.148148 12 4294967295
-10.747086 -24.074074 11 4294967295
-10.747086 -25 10 4294967295
-10.747086 -25.925926 9.333333 4294967295
-10.747086 -26.851852 8.666667 4294967295
-10.747086 -27.777779 8.333333 4294967295
-10.747086 -28.703705 8.333333 4294967295
-10.747086 -29.629631 8.333333 4294967295
-10.747086 -30.555557 8.333333 4294967295
-10.747086 -31.481483 8.333333 4294967295
-10.747086 -32.40741 8 4294967295
-10.747086 -33.333336 7.6666665 4294967295
-10.747086 -34.259262 7.3333335 4294967295
-10.747086 -35.185188 6.6666665 4294967295
-10.747086 -36.111115 6.6666665 4294967295
-10.747086 -37.037041 6.3333335 4294967295
-10.747086 -37.962959 6 4294967295
-10.747086 -38.888885 6 4294967295
-10.747086 -39.814812 6 4294967295
-10.747086 -40.740738 6 4294967295
-10.747086 -41.666664 6.3333335 4294967295
-10.747086 -42.59259 6.6666665 4294967295
-10.747086 -43.518517 5.6666665 4294967295
-10.747086 -44.444443 4.6666665 4294967295
-10.747086 -45.370369 2.6666667 4294967295
-10.747086 -46.296295 -1 4294967295
-10.747086 -47.222221 -3 4294967295
-10.747086 -48.148148 -13.333333 4294967295
-10.747086 -49.074074 -23.666666 4294967295
-10.747086 -52.777779 -33.666668 4294967295
-10.747086 -53.703705 -33.666668 4294967295
-10.747086 -54.629631 -33 4294967295
-10.747086 -55.555557 -33.666668 4294967295
-10.747086 -56.481483 -33.333332 4294967295
-10.747086 -57.40741 -33.666668 4294967295
-11.479088 50.925926 -33 4294967295
-11.479088 50 -8.666667 4294967295
-11.479088 49.074074 4.6666665 4294967295
-11.479088 48.148148 3.3333333 4294967295
-11.479088 47.222221 4 4294967295
-11.479088 46.296295 5 4294967295
-11.479088 45.370369 5.3333335 4294967295
-11.479088 44.444443 6.3333335 4294967295
-11.479088 43.518517 6.3333335 4294967295
-11.479088 42.592594 7.3333335 4294967295
-11.479088 41.666668 7.3333335 4294967295
-11.479088 40.740742 8.666667 4294967295
-11.479088 39.814816 8.666667 4294967295
-11.479088 38.888889 9 4294967295
-11.479088 37.962963 8.666667 4294967295
-11.479088 37.037037 9.333333 4294967295
-11.479088 36.111111 9 4294967295
-11.479088 35.185184 9.666667 4294967295
-11.479088 34.259258 9.666667 4294967295
-11.479088 33.333336 10.333333 4294967295
-11.479088 32.40741 10.666667 4294967295
-11.479088 31.481482 11.666667 4294967295
-11.479088 30.555555 12 4294967295
-11.479088 29.629629 13.333333 4294967295
-11.479088 28.703703 13.333333 4294967295
-11.479088 27.777779 14.666667 4294967295
-11.479088 26.851852 15 4294967295
-11.479088 25.925926 15.333333 4294967295
-11.479088 25 15.666667 4294967295
-11.479088 24.074074 15.666667 4294967295
-11.479088 23.148148 15.666667 4294967295
-11.479088 22.222221 16.333334 4294967295
-11.479088 21.296297 15.333333 4294967295
-11.479088 20.370371 14.666667 4294967295
-11.479088 19.444445 13.666667 4294967295
-11.479088 18.518518 12 4294967295
-11.479088 17.592594 8.333333 4294967295
-11.479088 16.666668 5.6666665 4294967295
-11.479088 15.740742 3.3333333 4294967295
-11.479088 14.814816 2 4294967295
-11.479088 13.888889 0.33333334 4294967295
-11.479088 12.962963 -0.33333334 4294967295
-11.479088 12.037037 -2 4294967295
-11.479088 11.111111 -2 4294967295
-11.479088 10.185184 -1 4294967295
-11.479088 9.2592583 0.33333334 4294967295
-11.479088 8.3333321 1 4294967295
-11.479088 7.4074059 1 4294967295
-11.479088 6.4814796 1.3333334 4294967295
-11.479088 5.5555573 2 4294967295
-11.479088 4.629631 1.3333334 4294967295
-11.479088 3.7037048 2.3333333 4294967295
-11.479088 2.7777786 2.6666667 4294967295
-11.479088 1.8518524 3 4294967295
-11.479088 0.92592621 3.6666667 4294967295
-11.479088 0 4 4294967295
-11.479088 -0.92592621 4.6666665 4294967295
-11.479088 -1.8518524 5.3333335 4294967295
-11.479088 -2.7777786 5 4294967295
-11.479088 -3.7037048 5.6666665 4294967295
-11.479088 -4.629631 5.6666665 4294967295
-11.479088 -5.5555573 6.3333335 4294967295
-11.479088 -6.4814796 6.3333335 4294967295
-11.479088 -7.4074059 6.6666665 4294967295
-11.479088 -8.3333321 6.3333335 4294967295
-11.479088 -9.2592583 6.6666665 4294967295
-11.479088 -10.185184 6 4294967295
-11.479088 -11.111111 6.6666665 4294967295
-11.479088 -12.037037 6.6666665 4294967295
-11.479088 -12.962963 7.3333335 4294967295
-11.479088 -13.888889 7.3333335 4294967295
-11.479088 -14.814812 8.333333 4294967295
-11.479088 -15.740738 8.666667 4294967295
-11.479088 -16.666664 10.333333 4294967295
-11.479088 -17.59259 11 4294967295
-11.479088 -18.518517 12 4294967295
-11.479088 -19.444443 12.666667 4294967295
-11.479088 -20.370369 13 4294967295
-11.479088 -21.296295 12 4294967295
-11.479088 -22.222221 12 4294967295
-11.479088 -23.148148 11.333333 4294967295
-11.479088 -24.074074 10.666667 4294967295
-11.479088 -25 9.666667 4294967295
-11.479088 -25.925926 9 4294967295
-11.479088 -26.851852 8 4294967295
-11.479088 -27.777779 8 4294967295
-11.479088 -28.703705 7.3333335 4294967295
-11.479088 -29.629631 7.6666665 4294967295
-11.479088 -30.555557 7.6666665 4294967295
-11.479088 -31.481483 7.6666665 4294967295
-11.479088 -32.40741 7.3333335 4294967295
-11.479088 -33.333336 7.3333335 4294967295
-11.479088 -34.259262 6.6666665 4294967295
-11.479088 -35.185188 6.3333335 4294967295
-11.479088 -36.111115 5.6666665 4294967295
-11.479088 -37.037041 5.3333335 4294967295
-11.479088 -37.962959 5 4294967295
-11.479088 -38.888885 5 4294967295
-11.479088 -39.814812 4.6666665 4294967295
-11.479088 -40.740738 5.6666665 4294967295
-11.479088 -41.666664 5.3333335 4294967295
-11.479088 -42.59259 5.6666665 4294967295
-11.479088 -43.518517 4.6666665 4294967295
-11.479088 -44.444443 4 4294967295
-11.479088 -45.370369 0.66666669 4294967295
-11.479088 -46.296295 -2.3333333 4294967295
-11.479088 -47.222221 -6 4294967295
-11.479088 -48.148148 -18 4294967295
-11.479088 -49.074074 -31.666666 4294967295
-11.479088 -53.703705 -33.666668 4294967295
-11.479088 -54.629631 -33.666668 4294967295
-12.21109 52.777779 -33.666668 4294967295
-12.21109 50 -10.333333 4294967295
-12.21109 49.074074 -2 4294967295
-12.21109 48.148148 2.6666667 4294967295
-12.21109 47.222221 3.3333333 4294967295
-12.21109 46.296295 4.3333335 4294967295
-12.21109 45.370369 5.3333335 4294967295
-12.21109 44.444443 6 4294967295
-12.21109 43.518517 6 4294967295
-12.21109 42.592594 6.3333335 4294967295
-12.21109 41.666668 6.6666665 4294967295
-12.21109 40.740742 7.6666665 4294967295
-12.21109 39.814816 8.333333 4294967295
-12.21109 38.888889 8.333333 4294967295
-12.21109 37.962963 8.333333 4294967295
-12.21109 37.037037 8.666667 4294967295
-12.21109 36.111111 8.666667 4294967295
-12.21109 35.185184 9 4294967295
-12.21109 34.259258 9.333333 4294967295
-12.21109 33.333336 9.666667 4294967295
-12.21109 32.40741 10.333333 4294967295
-12.21109 31.481482 11 4294967295
-12.21109 30.555555 11.666667 4294967295
-12.21109 29.629629 12 4294967295
-12.21109 28.703703 13.333333 4294967295
-12.21109 27.777779 13.666667 4294967295
-12.21109 26.851852 14.333333 4294967295
-12.21109 25.925926 14.666667 4294967295
-12.21109 25 14.666667 4294967295
-12.21109 24.074074 15 4294967295
-12.21109 23.148148 15.333333 4294967295
-12.21109 22.222221 15.333333 4294967295
-12.21109 21.296297 15 4294967295
-12.21109 20.370371 14.666667 4294967295
-12.21109 19.444445 13.333333 4294967295
-12.21109 18.518518 12 4294967295
-12.21109 17.592594 8.333333 4294967295
-12.21109 16.666668 5 4294967295
-12.21109 15.740742 3.3333333 4294967295
-12.21109 14.814816 1 4294967295
-12.21109 13.888889 0.33333334 4294967295
-12.21109 12.962963 -0.33333334 4294967295
-12.21109 12.037037 -2 4294967295
-12.21109 11.111111 -1.3333334 4294967295
-12.21109 10.185184 -1 4294967295
-12.21109 9.2592583 0.33333334 4294967295
-12.21109 8.3333321 1 4294967295
-12.21109 7.4074059 1.3333334 4294967295
-12.21109 6.4814796 1.3333334 4294967295
-12.21109 5.5555573 2 4294967295
-12.21109 4.629631 1.3333334 4294967295
-12.21109 3.7037048 2 4294967295
-12.21109 2.7777786 1.3333334 4294967295
-12.21109 1.8518524 2 4294967295
-12.21109 0.92592621 2.3333333 4294967295
-12.21109 0 3.3333333 4294967295
-12.21109 -0.92592621 3.6666667 4294967295
-12.21109 -1.8518524 4.3333335 4294967295
-12.21109 -2.7777786 4 4294967295
-12.21109 -3.7037048 4.3333335 4294967295
-12.21109 -4.629631 5 4294967295
-12.21109 -5.5555573 5 4294967295
-12.21109 -6.4814796 6 4294967295
-12.21109 -7.4074059 6.3333335 4294967295
-12.21109 -8.3333321 6.3333335 4294967295
-12.21109 -9.2592583 6.3333335 4294967295
-12.21109 -10.185184 6 4294967295
-12.21109 -11.111111 6 4294967295
-12.21109 -12.037037 6.3333335 4294967295
-12.21109 -12.962963 6.6666665 4294967295
-12.21109 -13.888889 6.6666665 4294967295
-12.21109 -14.814812 7.3333335 4294967295
-12.21109 -15.740738 8.333333 4294967295
-12.21109 -16.666664 9 4294967295
-12.21109 -17.59259 10.333333 4294967295
-12.21109 -18.518517 11 4294967295
-12.21109 -19.444443 11.666667 4294967295
-12.21109 -20.370369 11.666667 4294967295
-12.21109 -21.296295 12 4294967295
-12.21109 -22.222221 11.333333 4294967295
-12.21109 -23.148148 11 4294967295
-12.21109 -24.074074 10 4294967295
-12.21109 -25 9.333333 4294967295
-12.21109 -25.925926 8 4294967295
-12.21109 -26.851852 6.6666665 4294967295
-12.21109 -27.777779 6.6666665 4294967295
-12.21109 -28.703705 6.3333335 4294967295
-12.21109 -29.629631 6.3333335 4294967295
-12.21109 -30.555557 6.6666665 4294967295
-12.21109 -31.481483 6.3333335 4294967295
-12.21109 -32.40741 6.6666665 4294967295
-12.21109 -33.333336 6.3333335 4294967295
-12.21109 -34.259262 6 4294967295
-12.21109 -35.185188 5 4294967295
-12.21109 -36.111115 5 4294967295
-12.21109 -37.037041 4.3333335 4294967295
-12.21109 -37.962959 4.3333335 4294967295
-12.21109 -38.888885 3.3333333 4294967295
-12.21109 -39.814812 4 4294967295
-12.21109 -40.740738 4 4294967295
-12.21109 -41.666664 4.3333335 4294967295
-12.21109 -42.59259 4.6666665 4294967295
-12.21109 -43.518517 3.6666667 4294967295
-12.21109 -44.444443 1.3333334 4294967295
-12.21109 -45.370369 -0.66666669 4294967295
-12.21109 -46.296295 -5.3333335 4294967295
-12.21109 -47.222221 -13.333333 4294967295
-12.21109 -48.148148 -27.666666 4294967295
-12.21109 -50.925926 -33.666668 4294967295
-12.21109 -52.777779 -33.666668 4294967295
-12.21109 -54.629631 -33.333332 4294967295
-12.943085 50 -15.333333 4294967295
-12.943085 49.074074 -0.66666669 4294967295
-12.943085 48.148148 2.3333333 4294967295
-12.943085 47.222221 3.3333333 4294967295
-12.943085 46.296295 4.3333335 4294967295
-12.943085 45.370369 4.3333335 4294967295
-12.943085 44.444443 5.6666665 4294967295
-12.943085 43.518517 5.6666665 4294967295
-12.943085 42.592594 6.6666665 4294967295
-12.943085 41.666668 6.6666665 4294967295
-12.943085 40.740742 7.6666665 4294967295
-12.943085 39.814816 7.6666665 4294967295
-12.943085 38.888889 8 4294967295
-12.943085 37.962963 8 4294967295
-12.943085 37.037037 8.666667 4294967295
-12.943085 36.111111 8.666667 4294967295
-12.943085 35.185184 9 4294967295
-12.943085 34.259258 9 4294967295
-12.943085 33.333336 10 4294967295
-12.943085 32.40741 10 4294967295
-12.943085 31.481482 11 4294967295
-12.943085 30.555555 11.666667 4294967295
-12.943085 29.629629 12.666667 4294967295
-12.943085 28.703703 13.333333 4294967295
-12.943085 27.777779 13.666667 4294967295
-12.943085 26.851852 14 4294967295
-12.943085 25.925926 14.666667 4294967295
-12.943085 25 14.333333 4294967295
-12.943085 24.074074 15.333333 4294967295
-12.943085 23.148148 15.666667 4294967295
-12.943085 22.222221 16.333334 4294967295
-12.943085 21.296297 15.666667 4294967295
-12.943085 20.370371 15.333333 4294967295
-12.943085 19.444445 13.666667 4294967295
-12.943085 18.518518 12.666667 4294967295
-12.943085 17.592594 9 4294967295
-12.943085 16.666668 6 4294967295
-12.943085 15.740742 3.3333333 4294967295
-12.943085 14.814816 2 4294967295
-12.943085 13.888889 0.66666669 4294967295
-12.943085 12.962963 0 4294967295
-12.943085 12.037037 -1.3333334 4294967295
-12.943085 11.111111 -0.66666669 4294967295
-12.943085 10.185184 -1 4294967295
-12.943085 9.2592583 0.33333334 4294967295
-12.943085 8.3333321 1.3333334 4294967295
-12.943085 7.4074059 1.3333334 4294967295
-12.943085 6.4814796 2 4294967295
-12.943085 5.5555573 2.3333333 4294967295
-12.943085 4.629631 2 4294967295
-12.943085 3.7037048 2 4294967295
-12.943085 2.7777786 1.3333334 4294967295
-12.943085 1.8518524 2 4294967295
-12.943085 0.92592621 2 4294967295
-12.943085 0 3.3333333 4294967295
-12.943085 -0.92592621 3.3333333 4294967295
-12.943085 -1.8518524 4 4294967295
-12.943085 -2.7777786 4 4294967295
-12.943085 -3.7037048 4.3333335 4294967295
-12.943085 -4.629631 4.6666665 4294967295
-12.943085 -5.5555573 5.3333335 4294967295
-12.943085 -6.4814796 5.6666665 4294967295
-12.943085 -7.4074059 6.6666665 4294967295
-12.943085 -8.3333321 6 4294967295
-12.943085 -9.2592583 6.3333335 4294967295
-12.943085 -10.185184 6 4294967295
-12.943085 -11.111111 6.6666665 4294967295
-12.943085 -12.037037 6 4294967295
-12.943085 -12.962963 6.6666665 4294967295
-12.943085 -13.888889 6.6666665 4294967295
-12.943085 -14.814812 8 4294967295
-12.943085 -15.740738 8.333333 4294967295
-12.943085 -16.666664 9.333333 4294967295
-12.943085 -17.59259 10 4294967295
-12.943085 -18.518517 11.333333 4294967295
-12.943085 -19.444443 11.333333 4294967295
-12.943085 -20.370369 11.666667 4294967295
-12.943085 -21.296295 11.333333 4294967295
-12.943085 -22.222221 11.333333 4294967295
-12.943085 -23.148148 10.333333 4294967295
-12.943085 -24.074074 10 4294967295
-12.943085 -25 9 4294967295
-12.943085 -25.925926 8 4294967295
-12.943085 -26.851852 6.6666665 4294967295
-12.943085 -27.777779 6.6666665 4294967295
-12.943085 -28.703705 5.6666665 4294967295
-12.943085 -29.629631 6 4294967295
-12.943085 -30.555557 6 4294967295
-12.943085 -31.481483 6 4294967295
-12.943085 -32.40741 5.6666665 4294967295
-12.943085 -33.333336 5.6666665 4294967295
-12.943085 -34.259262 5 4294967295
-12.943085 -35.185188 4.6666665 4294967295
-12.943085 -36.111115 3.6666667 4294967295
-12.943085 -37.037041 3.3333333 4294967295
-12.943085 -37.962959 3 4294967295
-12.943085 -38.888885 2.6666667 4294967295
-12.943085 -39.814812 2.6666667 4294967295
-12.943085 -40.740738 3.3333333 4294967295
-12.943085 -41.666664 3 4294967295
-12.943085 -42.59259 3.3333333 4294967295
-12.943085 -43.518517 1.3333334 4294967295
-12.943085 -44.444443 -1.3333334 4294967295
-12.943085 -45.370369 -2.3333333 4294967295
-12.943085 -46.296295 -7.3333335 4294967295
-12.943085 -47.222221 -18.666666 4294967295
-12.943085 -48.148148 -32.666668 4294967295
-12.943085 -50 -33 4294967295
-13.675087 52.777779 -33.666668 4294967295
-13.675087 50 -18 4294967295
-13.675087 49.074074 -1.3333334 4294967295
-13.675087 48.148148 1 4294967295
-13.675087 47.222221 2.6666667 4294967295
-13.675087 46.296295 4 4294967295
-13.675087 45.370369 4.3333335 4294967295
-13.675087 44.444443 5 4294967295
-13.675087 43.518517 5 4294967295
-13.675087 42.592594 5.3333335 4294967295
-13.675087 41.666668 6 4294967295
-13.675087 40.740742 6.6666665 4294967295
-13.675087 39.814816 6.6666665 4294967295
-13.675087 38.888889 6.6666665 4294967295
-13.675087 37.962963 7.3333335 4294967295
-13.675087 37.037037 7.6666665 4294967295
-13.675087 36.111111 8 4294967295
-13.675087 35.185184 8 4294967295
-13.675087 34.259258 8.333333 4294967295
-13.675087 33.333336 8.666667 4294967295
-13.675087 32.40741 9.666667 4294967295
-13.675087 31.481482 10 4294967295
-13.675087 30.555555 11 4294967295
-13.675087 29.629629 11.333333 4294967295
-13.675087 28.703703 12 4294967295
-13.675087 27.777779 12.666667 4294967295
-13.675087 26.851852 13 4294967295
-13.675087 25.925926 13.333333 4294967295
-13.675087 25 14 4294967295
-13.675087 24.074074 14.666667 4294967295
-13.675087 23.148148 15.666667 4294967295
-13.675087 22.222221 15.333333 4294967295
-13.675087 21.296297 16 4294967295
-13.675087 20.370371 15 4294967295
-13.675087 19.444445 13.333333 4294967295
-13.675087 18.518518 12.666667 4294967295
-13.675087 17.592594 9 4294967295
-13.675087 16.666668 5.3333335 4294967295
-13.675087 15.740742 4.3333335 4294967295
-13.675087 14.814816 2 4294967295
-13.675087 13.888889 0.66666669 4294967295
-13.675087 12.962963 -0.66666669 4294967295
-13.675087 12.037037 -0.66666669 4294967295
-13.675087 11.111111 -1 4294967295
-13.675087 10.185184 -0.66666669 4294967295
-13.675087 9.2592583 0.33333334 4294967295
-13.675087 8.3333321 0.66666669 4294967295
-13.675087 7.4074059 1 4294967295
-13.675087 6.4814796 1.3333334 4294967295
-13.675087 5.5555573 1.3333334 4294967295
-13.675087 4.629631 1.3333334 4294967295
-13.675087 3.7037048 1 4294967295
-13.675087 2.7777786 1 4294967295
-13.675087 1.8518524 1 4294967295
-13.675087 0.92592621 1.3333334 4294967295
-13.675087 0 2 4294967295
-13.675087 -0.92592621 2.3333333 4294967295
-13.675087 -1.8518524 3 4294967295
-13.675087 -2.7777786 3.6666667 4294967295
-13.675087 -3.7037048 3.3333333 4294967295
-13.675087 -4.629631 4 4294967295
-13.675087 -5.5555573 4.6666665 4294967295
-13.675087 -6.4814796 5 4294967295
-13.675087 -7.4074059 5.6666665 4294967295
-13.675087 -8.3333321 5.6666665 4294967295
-13.675087 -9.2592583 6 4294967295
-13.675087 -10.185184 6 4294967295
-13.675087 -11.111111 6 4294967295
-13.675087 -12.037037 6 4294967295
-13.675087 -12.962963 6.3333335 4294967295
-13.675087 -13.888889 6.6666665 4294967295
-13.675087 -14.814812 6.6666665 4294967295
-13.675087 -15.740738 7.6666665 4294967295
-13.675087 -16.666664 8.333333 4294967295
-13.675087 -17.59259 9 4294967295
-13.675087 -18.518517 9.666667 4294967295
-13.675087 -19.444443 10.333333 4294967295
-13.675087 -20.370369 10.666667 4294967295
-13.675087 -21.296295 10.333333 4294967295
-13.675087 -22.222221 10.333333 4294967295
-13.675087 -23.148148 10 4294967295
-13.675087 -24.074074 9 4294967295
-13.675087 -25 8.333333 4294967295
-13.675087 -25.925926 6.6666665 4294967295
-13.675087 -26.851852 6.3333335 4294967295
-13.675087 -27.777779 5.6666665 4294967295
-13.675087 -28.703705 5.3333335 4294967295
-13.675087 -29.629631 5 4294967295
-13.675087 -30.555557 5 4294967295
-13.675087 -31.481483 5.3333335 4294967295
-13.675087 -32.40741 5 4294967295
-13.675087 -33.333336 4.6666665 4294967295
-13.675087 -34.259262 4.3333335 4294967295
-13.675087 -35.185188 3.3333333 4294967295
-13.675087 -36.111115 2.6666667 4294967295
-13.675087 -37.037041 2.3333333 4294967295
-13.675087 -37.962959 2 4294967295
-13.675087 -38.888885 1.3333334 4294967295
-13.675087 -39.814812 1.3333334 4294967295
-13.675087 -40.740738 2 4294967295
-13.675087 -41.666664 2 4294967295
-13.675087 -42.59259 1.3333334 4294967295
-13.675087 -43.518517 0 4294967295
-13.675087 -44.444443 -3.3333333 4294967295
-13.675087 -45.370369 -3.6666667 4294967295
-13.675087 -46.296295 -16.666666 4294967295
-13.675087 -47.222221 -22.333334 4294967295
-13.675087 -50.925926 -33.333332 4294967295
-13.675087 -52.777779 -33.666668 4294967295
-14.407089 50 -31 4294967295
-14.407089 49.074074 -3.3333333 4294967295
-14.407089 48.148148 2 4294967295
-14.407089 47.222221 1.3333334 4294967295
-14.407089 46.296295 3.3333333 4294967295
-14.407089 45.370369 3.6666667 4294967295
-14.407089 44.444443 4.3333335 4294967295
-14.407089 43.518517 4.6666665 4294967295
-14.407089 42.592594 5.3333335 4294967295
-14.407089 41.666668 5.6666665 4294967295
-14.407089 40.740742 6 4294967295
-14.407089 39.814816 6.3333335 4294967295
-14.407089 38.888889 6.6666665 4294967295
-14.407089 37.962963 6.6666665 4294967295
-14.407089 37.037037 7.3333335 4294967295
-14.407089 36.111111 7.3333335 4294967295
-14.407089 35.185184 8 4294967295
-14.407089 34.259258 8 4294967295
-14.407089 33.333336 9 4294967295
-14.407089 32.40741 9 4294967295
-14.407089 31.481482 10.333333 4294967295
-14.407089 30.555555 10.333333 4294967295
-14.407089 29.629629 11.333333 4294967295
-14.407089 28.703703 11.333333 4294967295
-14.407089 27.777779 12 4294967295
-14.407089 26.851852 12 4294967295
-14.407089 25.925926 13 4294967295
-14.407089 25 13.333333 4294967295
-14.407089 24.074074 14.666667 4294967295
-14.407089 23.148148 15.333333 4294967295
-14.407089 22.222221 16 4294967295
-14.407089 21.296297 15.333333 4294967295
-14.407089 20.370371 15.333333 4294967295
-14.407089 19.444445 14 4294967295
-14.407089 18.518518 12 4294967295
-14.407089 17.592594 9.333333 4294967295
-14.407089 16.666668 6.3333335 4294967295
-14.407089 15.740742 4 4294967295
-14.407089 14.814816 2.3333333 4294967295
-14.407089 13.888889 0 4294967295
-14.407089 12.962963 -0.66666669 4294967295
-14.407089 12.037037 -1.3333334 4294967295
-14.407089 11.111111 -0.66666669 4294967295
-14.407089 10.185184 -0.66666669 4294967295
-14.407089 9.2592583 0.33333334 4294967295
-14.407089 8.3333321 0.66666669 4294967295
-14.407089 7.4074059 1.3333334 4294967295
-14.407089 6.4814796 1.3333334 4294967295
-14.407089 5.5555573 1.3333334 4294967295
-14.407089 4.629631 1 4294967295
-14.407089 3.7037048 0.66666669 4294967295
-14.407089 2.7777786 0.33333334 4294967295
-14.407089 1.8518524 1 4294967295
-14.407089 0.92592621 0.66666669 4294967295
-14.407089 0 1.3333334 4294967295
-14.407089 -0.92592621 2.3333333 4294967295
-14.407089 -1.8518524 3 4294967295
-14.407089 -2.7777786 3.3333333 4294967295
-14.407089 -3.7037048 3.3333333 4294967295
-14.407089 -4.629631 3.6666667 4294967295
-14.407089 -5.5555573 4.3333335 4294967295
-14.407089 -6.4814796 4.6666665 4294967295
-14.407089 -7.4074059 5.3333335 4294967295
-14.407089 -8.3333321 5.6666665 4294967295
-14.407089 -9.2592583 5.6666665 4294967295
-14.407089 -10.185184 6 4294967295
-14.407089 -11.111111 6 4294967295
-14.407089 -12.037037 6 4294967295
-14.407089 -12.962963 6.3333335 4294967295
-14.407089 -13.888889 6.6666665 4294967295
-14.407089 -14.814812 7.3333335 4294967295
-14.407089 -15.740738 7.6666665 4294967295
-14.407089 -16.666664 8.333333 4294967295
-14.407089 -17.59259 8.666667 4294967295
-14.407089 -18.518517 9.666667 4294967295
-14.407089 -19.444443 9.666667 4294967295
-14.407089 -20.370369 10.333333 4294967295
-14.407089 -21.296295 10 4294967295
-14.407089 -22.222221 10.333333 4294967295
-14.407089 -23.148148 9.333333 4294967295
-14.407089 -24.074074 9 4294967295
-14.407089 -25 8 4294967295
-14.407089 -25.925926 7.3333335 4294967295
-14.407089 -26.851852 6 4294967295
-14.407089 -27.777779 5.3333335 4294967295
-14.407089 -28.703705 4.6666665 4294967295
