# .PCD v0.7 - Point Cloud Data file format
VERSION 0.7
FIELDS x y z rgba
SIZE 4 4 4 4
TYPE F F F U
COUNT 1 1 1 1
WIDTH 1115
HEIGHT 1
VIEWPOINT 0 0 0 1 0 0 0
POINTS 1115
DATA ascii
37.771103 -1.8623009 -9.9636421 4294967295
38.236183 -1.8104477 -10.94088 4294967295
38.603325 -1.7873116 -11.823143 4294967295
39.131279 -1.6851807 -13.191692 4294967295
39.39183 -1.686409 -13.899178 4294967295
39.849274 -1.5954628 -15.256889 4294967295
40.185951 -1.5030632 -16.26017 4294967295
40.526085 -1.4747009 -17.33263 4294967295
40.713989 -1.4092522 -17.88628 4294967295
40.953674 -1.4430389 -18.727806 4294967295
41.137772 -1.4800568 -19.349709 4294967295
-37.290642 0.5324707 -20.379326 4294967295
-36.974747 0.55860901 -18.928442 4294967295
-36.718956 0.41356659 -17.906712 4294967295
-36.388496 0.26908493 -16.6763 4294967295
-35.880711 0.12651825 -14.97467 4294967295
-35.383759 0.057483673 -13.525627 4294967295
-34.699085 -0.07188797 -11.802094 4294967295
-34.273376 -0.1151123 -10.839439 4294967295
-33.852669 -0.16992188 -9.9815674 4294967295
-33.432335 -0.23542023 -9.2027702 4294967295
-33.06699 -0.27407837 -8.577446 4294967295
-32.636261 -0.3073349 -7.8659248 4294967295
-32.282871 -0.36616135 -7.3181 4294967295
-31.803183 -0.41442108 -6.6256523 4294967295
-31.413912 -0.43667984 -6.0932617 4294967295
-31.003996 -0.49007416 -5.5780487 4294967295
-30.598866 -0.51884079 -5.0835838 4294967295
-30.246445 -0.53735733 -4.6792908 4294967295
-29.948103 -0.56650543 -4.3576088 4294967295
-29.446154 -0.60718918 -3.831852 4294967295
-29.065374 -0.64401245 -3.4524536 4294967295
-28.746819 -0.6564064 -3.1465607 4294967295
-28.296862 -0.69801331 -2.7415161 4294967295
-27.702019 -0.73484039 -2.2077217 4294967295
-27.252403 -0.76948166 -1.8365326 4294967295
-26.852331 -0.78800583 -1.51791 4294967295
-26.361237 -0.84065247 -1.1369781 4294967295
-25.793434 -0.89056015 -0.71210098 4294967295
-25.2777 -0.91069031 -0.35478973 4294967295
-24.830309 -0.94679642 -0.048748016 4294967295
-24.337969 -0.98132324 0.26499176 4294967295
-23.890463 -1.03759 0.53815842 4294967295
-23.442026 -1.062645 0.79910278 4294967295
-23.003384 -1.0986633 1.0369606 4294967295
-22.575039 -1.1580391 1.2699471 4294967295
-22.160515 -1.1924248 1.4902229 4294967295
-21.712811 -1.2432747 1.7141533 4294967295
-21.307713 -1.2573471 1.9053955 4294967295
-20.861002 -1.2998886 2.1123276 4294967295
-20.440548 -1.3442917 2.3031425 4294967295
-20.046547 -1.3610764 2.4767227 4294967295
-19.640598 -1.3891106 2.6424103 4294967295
-19.258287 -1.3992119 2.7982292 4294967295
-18.838015 -1.4191551 2.9634781 4294967295
-18.424679 -1.4118195 3.1108513 4294967295
-18.022274 -1.4355316 3.2628555 4294967295
-17.606892 -1.4450073 3.4105949 4294967295
-17.226566 -1.4428711 3.5458488 4294967295
-16.826267 -1.4208679 3.6791458 4294967295
-16.407021 -1.4214134 3.8286095 4294967295
-16.011036 -1.4296417 3.9617729 4294967295
-15.623264 -1.4158058 4.0748062 4294967295
-15.223888 -1.4177475 4.2010498 4294967295
-14.808495 -1.4168968 4.3343201 4294967295
-14.451893 -1.3990517 4.4337273 4294967295
-14.089153 -1.3689766 4.5324783 4294967295
-13.710556 -1.3517685 4.6410446 4294967295
-13.315639 -1.3245926 4.7589378 4294967295
-12.971996 -1.2805519 4.8609848 4294967295
-12.681847 -1.257328 4.9225311 4294967295
-12.229794 -1.28162 5.1182098 4294967295
-11.488106 -1.4221306 5.6642952 4294967295
-10.545868 -1.6396523 6.7133827 4294967295
-9.8909683 -1.7501602 7.5708389 4294967295
-9.4019623 -1.8083 8.2448349 4294967295
-8.742012 -1.9983253 9.5594597 4294967295
-8.3133545 -2.0189629 10.317116 4294967295
-7.9532051 -2.0977364 11.056858 4294967295
-7.672699 -2.1261101 11.684978 4294967295
-7.3914299 -2.0698509 12.193848 4294967295
-7.1048813 -2.107872 12.801464 4294967295
-7.0485344 -1.9812241 12.636013 4294967295
-7.3208961 -1.5617867 10.918945 4294967295
-7.0785332 -1.5470428 11.267601 4294967295
-5.5305405 -2.5128975 16.767464 4294967295
-5.0255127 -2.6080933 17.87722 4294967295
-4.9152908 -2.5298424 17.949013 4294967295
-4.8066368 -2.4377747 17.998245 4294967295
-4.713707 -2.3235397 17.970024 4294967295
-4.532692 -2.2636452 18.149139 4294967295
-4.1319847 -2.3184471 18.798424 4294967295
-3.757946 -2.3441849 19.36055 4294967295
-3.3956566 -2.3714027 19.790794 4294967295
-2.9865189 -2.4070625 20.227722 4294967295
-2.6974068 -2.3858833 20.454369 4294967295
-2.2446671 -2.4018631 20.800743 4294967295
-1.8292542 -2.4054298 21.101479 4294967295
-1.414032 -2.427475 21.299965 4294967295
-0.97628784 -2.4570007 21.44886 4294967295
-0.49324036 -2.4847221 21.609406 4294967295
-0.00016403198 -2.4745293 21.690689 4294967295
0.52093124 -2.4535103 21.714745 4294967295
1.0220871 -2.4461746 21.700958 4294967295
1.5074654 -2.4564133 21.63311 4294967295
1.9697075 -2.454464 21.542076 4294967295
2.4146614 -2.4692688 21.404343 4294967295
2.8886261 -2.4526329 21.206161 4294967295
3.310894 -2.455719 20.97226 4294967295
3.7364845 -2.4938736 20.747803 4294967295
4.105938 -2.4810562 20.446655 4294967295
4.4696693 -2.4889412 20.13456 4294967295
4.8405571 -2.5064735 19.76181 4294967295
5.3024483 -2.4454918 19.093079 4294967295
5.7863579 -2.3984566 18.337402 4294967295
6.2155418 -2.3554115 17.540871 4294967295
6.5508652 -2.3279686 16.873238 4294967295
7.0262985 -2.199028 15.764931 4294967295
7.4187164 -2.1294327 14.804924 4294967295
7.528717 -2.2406693 14.730354 4294967295
7.6852913 -2.2959671 14.510956 4294967295
7.9532509 -2.2877731 13.937939 4294967295
8.3851929 -2.2626953 12.994652 4294967295
8.6291122 -2.3347015 12.593704 4294967295
8.7535858 -2.441288 12.537552 4294967295
8.9195786 -2.5053711 12.262882 4294967295
9.0893974 -2.5787392 12.025963 4294967295
9.4129906 -2.5721397 11.298531 4294967295
10.356247 -2.3407669 9.2238617 4294967295
12.866776 -1.7473831 5.9857063 4294967295
13.228397 -1.7401352 5.8994102 4294967295
13.543053 -1.777607 5.8837471 4294967295
13.929813 -1.7839165 5.8112869 4294967295
14.363029 -1.7840996 5.6901474 4294967295
14.748848 -1.8052635 5.5932541 4294967295
15.123833 -1.8214378 5.4987907 4294967295
15.515099 -1.8327065 5.4030304 4294967295
15.886757 -1.8435822 5.3200645 4294967295
16.286758 -1.8714294 5.2131195 4294967295
16.652092 -1.8961525 5.1231194 4294967295
17.07132 -1.9144402 5.0048409 4294967295
17.457344 -1.9271736 4.9079475 4294967295
17.926064 -1.9248009 4.7693253 4294967295
18.352547 -1.9484711 4.6530075 4294967295
18.772995 -1.952179 4.537159 4294967295
19.145172 -1.9798012 4.4384766 4294967295
19.568718 -1.9855576 4.3189659 4294967295
20.021873 -1.9748611 4.1773033 4294967295
20.464951 -1.9597397 4.0345421 4294967295
20.871262 -1.982769 3.9097023 4294967295
21.310326 -2.008194 3.7747459 4294967295
21.707344 -2.0189209 3.650135 4294967295
22.119034 -2.0029144 3.5040016 4294967295
22.568443 -2.0075951 3.3416519 4294967295
23.008507 -2.0091705 3.1848679 4294967295
23.442924 -2.005703 3.0218849 4294967295
23.922554 -1.9894676 2.8252907 4294967295
24.350479 -2.0008469 2.655529 4294967295
24.783806 -1.9693642 2.4755249 4294967295
25.243301 -1.9469223 2.2673798 4294967295
25.689819 -1.9390564 2.0620155 4294967295
26.184013 -1.9277687 1.8137589 4294967295
26.677574 -1.9237823 1.5656242 4294967295
27.137985 -1.9069862 1.3244743 4294967295
27.694115 -1.9161682 1.0127907 4294967295
28.19545 -1.9113846 0.71286011 4294967295
28.638451 -1.9086075 0.43707657 4294967295
29.185349 -1.9031105 0.082271576 4294967295
29.620529 -1.9048576 -0.21406174 4294967295
30.064514 -1.9026146 -0.5321846 4294967295
30.617371 -1.8888206 -0.95357895 4294967295
31.048912 -1.8903961 -1.2893257 4294967295
31.344429 -1.8758163 -1.5230217 4294967295
31.729095 -1.8768501 -1.8394928 4294967295
32.279854 -1.8486443 -2.3485794 4294967295
32.618637 -1.8438072 -2.6664734 4294967295
32.98616 -1.8584595 -3.026207 4294967295
33.444786 -1.8447342 -3.4889717 4294967295
33.748924 -1.8117294 -3.8080978 4294967295
34.140907 -1.7842216 -4.2597961 4294967295
34.495384 -1.770443 -4.6785965 4294967295
34.990784 -1.722168 -5.318203 4294967295
35.355637 -1.6845093 -5.8069229 4294967295
35.78215 -1.6541405 -6.4200783 4294967295
36.160095 -1.6047287 -6.9839554 4294967295
36.592163 -1.574379 -7.6710777 4294967295
37.001045 -1.5234566 -8.387146 4294967295
37.400917 -1.4649544 -9.1360168 4294967295
37.82415 -1.4334908 -9.9541588 4294967295
38.279495 -1.4179344 -10.917751 4294967295
38.66494 -1.3263512 -11.837692 4294967295
39.177742 -1.2941971 -13.153767 4294967295
39.474182 -1.2838287 -13.970737 4294967295
39.830276 -1.1926117 -14.990406 4294967295
40.245796 -1.0946465 -16.244736 4294967295
40.545631 -1.0791855 -17.175995 4294967295
40.754066 -1.0472374 -17.824184 4294967295
41.021675 -1.0215492 -18.724245 4294967295
41.184441 -1.0666885 -19.282543 4294967295
-37.292038 0.97319031 -20.147499 4294967295
-36.959953 0.95382309 -18.647766 4294967295
-36.741875 0.8876152 -17.797729 4294967295
-36.376755 0.7261734 -16.490795 4294967295
-35.786018 0.5185051 -14.561642 4294967295
-35.296333 0.46474457 -13.196877 4294967295
-34.683758 0.35473251 -11.686054 4294967295
-34.168037 0.31034851 -10.538109 4294967295
-33.810524 0.25976944 -9.8293228 4294967295
-33.351395 0.18040085 -8.9826927 4294967295
-32.978477 0.14595413 -8.3665161 4294967295
-32.559891 0.10076141 -7.6902809 4294967295
-32.229149 0.044410706 -7.1946259 4294967295
-31.774164 -0.0029945374 -6.5563316 4294967295
-31.368641 -0.030662537 -6.0088806 4294967295
-30.979597 -0.061080933 -5.5191154 4294967295
-30.593403 -0.10523605 -5.054863 4294967295
-30.170692 -0.12351227 -4.5781212 4294967295
-29.900053 -0.14474869 -4.2922478 4294967295
-29.408401 -0.17223358 -3.7843971 4294967295
-28.996723 -0.20368576 -3.381031 4294967295
-28.711483 -0.22863007 -3.1105461 4294967295
-28.220055 -0.26804352 -2.6704903 4294967295
-27.695179 -0.3155632 -2.2097321 4294967295
-27.243196 -0.33842087 -1.8417969 4294967295
-26.832287 -0.37246704 -1.5165024 4294967295
-26.364643 -0.41858292 -1.1562996 4294967295
-25.775881 -0.47212219 -0.72273254 4294967295
-25.226706 -0.52124023 -0.34008789 4294967295
-24.816608 -0.52878952 -0.076301575 4294967295
-24.32543 -0.56755829 0.23782349 4294967295
-23.893898 -0.63087845 0.50087738 4294967295
-23.416945 -0.67478561 0.77469254 4294967295
-23.019377 -0.70010757 0.98960495 4294967295
-22.57267 -0.74476242 1.2256622 4294967295
-22.134253 -0.78744125 1.4499016 4294967295
-21.712135 -0.81062317 1.6583557 4294967295
-21.277702 -0.82427979 1.8609161 4294967295
-20.866257 -0.86651993 2.0501976 4294967295
-20.435652 -0.89839554 2.2462006 4294967295
-20.076668 -0.92082596 2.3974419 4294967295
-19.642601 -0.96834564 2.5776443 4294967295
-19.187059 -1.0093613 2.7655296 4294967295
-18.818417 -1.0036621 2.9048271 4294967295
-18.399149 -1.0374031 3.0613823 4294967295
-17.990788 -1.0353165 3.2107544 4294967295
-17.548569 -1.038353 3.3746719 4294967295
-17.175217 -1.0205917 3.5012665 4294967295
-16.788692 -1.0201263 3.6333809 4294967295
-16.384827 -1.0301781 3.7790909 4294967295
-15.987091 -1.0294266 3.9051056 4294967295
-15.584972 -1.0156021 4.0256157 4294967295
-15.192993 -1.0091057 4.1527443 4294967295
-14.788013 -1.0129089 4.282032 4294967295
-14.398895 -1.0045013 4.4011002 4294967295
-14.008915 -0.96356201 4.5113487 4294967295
-13.63723 -0.97939301 4.6266556 4294967295
-13.232037 -0.95175171 4.7579956 4294967295
-12.872498 -0.91453552 4.8697701 4294967295
-12.612213 -0.85625458 4.9270554 4294967295
-12.172543 -0.88195038 5.1096191 4294967295
-11.418095 -1.0266685 5.6797256 4294967295
-10.4067 -1.2677116 6.8271637 4294967295
-9.7056122 -1.4440193 7.7657166 4294967295
-9.1433983 -1.552494 8.643158 4294967295
-8.5454445 -1.6432152 9.7425995 4294967295
-8.106514 -1.7434654 10.602791 4294967295
-7.7498436 -1.7954903 11.331791 4294967295
-7.4809265 -1.7750282 11.861549 4294967295
-7.2088127 -1.7703285 12.384003 4294967295
-6.9292755 -1.7477074 12.956715 4294967295
-6.8576279 -1.6433868 12.873329 4294967295
-7.0699844 -1.2367783 11.587803 4294967295
-6.8240623 -1.2457962 12.150997 4294967295
-5.3044395 -2.2056122 17.087021 4294967295
-4.9999352 -2.2012405 17.658058 4294967295
-4.8614578 -2.1281853 17.799973 4294967295
-4.7350273 -2.0368118 17.874359 4294967295
-4.581356 -1.9588394 18.010391 4294967295
-4.3687439 -1.9028244 18.26371 4294967295
-4.0063591 -1.9548645 18.851021 4294967295
-3.6382637 -1.9678993 19.351936 4294967295
-3.3125267 -1.9401398 19.677475 4294967295
-2.9212456 -1.9884796 20.13089 4294967295
-2.618248 -1.9627991 20.365265 4294967295
-2.1392975 -2.0107918 20.771782 4294967295
-1.7724609 -2.0310478 20.983604 4294967295
-1.3573112 -2.0162506 21.190079 4294967295
-0.93046188 -2.047184 21.377907 4294967295
-0.44157791 -2.0612335 21.528915 4294967295
0.045455933 -2.0531845 21.601311 4294967295
0.53211975 -2.0809975 21.641541 4294967295
1.0070076 -2.083065 21.618309 4294967295
1.4799461 -2.1042976 21.575554 4294967295
1.9756203 -2.0432892 21.457024 4294967295
2.4035683 -2.0515785 21.341682 4294967295
2.8323402 -2.0388489 21.16806 4294967295
3.2568169 -2.0320625 20.940002 4294967295
3.6248741 -2.0786743 20.727287 4294967295
4.0007706 -2.098465 20.444099 4294967295
4.3706818 -2.1053505 20.142578 4294967295
4.6917801 -2.1296577 19.826599 4294967295
5.1994743 -2.0720558 19.113457 4294967295
5.587059 -2.0340729 18.548027 4294967295
5.94067 -2.0487823 17.972572 4294967295
6.3579483 -1.9743576 17.114105 4294967295
6.7065887 -1.965107 16.417702 4294967295
7.0132446 -1.9223938 15.754028 4294967295
7.2349625 -1.9345856 15.363228 4294967295
7.4766769 -1.9616318 14.859398 4294967295
7.6973495 -2.0372124 14.484993 4294967295
7.9778671 -2.0355263 13.877468 4294967295
8.1902924 -2.1114693 13.504536 4294967295
8.4640579 -2.1706924 13.062 4294967295
8.7010155 -2.2288818 12.598846 4294967295
8.9531364 -2.2551765 12.132751 4294967295
9.2668533 -2.2361984 11.463421 4294967295
10.137905 -1.975872 9.4443665 4294967295
12.832497 -1.3112259 6.0022659 4294967295
13.217102 -1.3024101 5.9048843 4294967295
13.526173 -1.3392143 5.8682518 4294967295
13.895226 -1.3662567 5.7973671 4294967295
14.323418 -1.3676453 5.6656723 4294967295
14.722603 -1.3737831 5.5538826 4294967295
15.095406 -1.3863792 5.4536896 4294967295
15.509735 -1.3832283 5.3427925 4294967295
15.886078 -1.4217873 5.2533264 4294967295
16.268028 -1.4483452 5.1549149 4294967295
16.655037 -1.4786797 5.0556908 4294967295
17.092934 -1.4679298 4.9266624 4294967295
17.491043 -1.4963913 4.8273735 4294967295
17.929779 -1.513813 4.7017021 4294967295
18.359985 -1.5172844 4.5786934 4294967295
18.755356 -1.5217476 4.4725952 4294967295
19.154289 -1.5572891 4.3649597 4294967295
19.587517 -1.5536385 4.237793 4294967295
20.048996 -1.528244 4.0944405 4294967295
20.449432 -1.5419617 3.9746208 4294967295
20.883286 -1.5412407 3.8340797 4294967295
21.331863 -1.5639801 3.6967926 4294967295
21.732918 -1.5574684 3.576458 4294967295
22.129753 -1.5776405 3.440876 4294967295
22.563667 -1.5910378 3.294384 4294967295
23.00769 -1.6015015 3.1321526 4294967295
23.425919 -1.6096535 2.980648 4294967295
23.922401 -1.5866051 2.7772369 4294967295
24.356285 -1.5606003 2.6095314 4294967295
24.768669 -1.5561028 2.4394989 4294967295
25.231987 -1.5363426 2.2357292 4294967295
25.687576 -1.5160904 2.0302773 4294967295
26.168976 -1.4941177 1.7937469 4294967295
26.664352 -1.5037727 1.5490303 4294967295
27.119362 -1.4981194 1.3090782 4294967295
27.691292 -1.4808197 0.9876442 4294967295
28.145195 -1.4971695 0.73296356 4294967295
28.612556 -1.4988174 0.44670105 4294967295
29.180023 -1.4923286 0.086433411 4294967295
29.607025 -1.4927559 -0.20414352 4294967295
30.047157 -1.4773903 -0.51230621 4294967295
30.568146 -1.4721375 -0.89952087 4294967295
30.967262 -1.463356 -1.2071724 4294967295
31.327606 -1.4622803 -1.4890442 4294967295
31.729973 -1.4534149 -1.8229942 4294967295
32.190262 -1.435463 -2.2248764 4294967295
32.573662 -1.4458771 -2.5888367 4294967295
32.925674 -1.4470329 -2.9170647 4294967295
33.378372 -1.4224777 -3.3669662 4294967295
33.725731 -1.4010315 -3.7412949 4294967295
34.123375 -1.3849144 -4.1859283 4294967295
34.485367 -1.3483772 -4.611763 4294967295
34.944916 -1.2966309 -5.1825104 4294967295
35.32412 -1.2775269 -5.6969299 4294967295
35.723671 -1.2283554 -6.2622871 4294967295
36.122986 -1.2022476 -6.8488274 4294967295
36.578827 -1.1440239 -7.5673141 4294967295
37.018669 -1.0780754 -8.3181725 4294967295
37.434486 -1.0267525 -9.0911102 4294967295
37.88369 -1.0120468 -9.9789085 4294967295
38.292793 -0.98011017 -10.858116 4294967295
38.745903 -0.91133881 -11.894142 4294967295
39.199478 -0.90721893 -13.064079 4294967295
39.564041 -0.83626175 -14.077179 4294967295
39.819855 -0.78844452 -14.777367 4294967295
40.317917 -0.66588593 -16.269554 4294967295
40.596542 -0.65057373 -17.116276 4294967295
40.800644 -0.68092728 -17.799736 4294967295
41.086967 -0.64587402 -18.737728 4294967295
-37.295349 1.4702034 -19.93679 4294967295
-36.953461 1.403862 -18.434494 4294967295
-36.743301 1.3066826 -17.636017 4294967295
-36.168434 1.0841255 -15.66013 4294967295
-35.750816 0.94304657 -14.360638 4294967295
-35.200031 0.85258484 -12.858051 4294967295
-34.581631 0.77613449 -11.361767 4294967295
-34.092339 0.72392273 -10.323933 4294967295
-33.702415 0.66697693 -9.5610542 4294967295
-33.266674 0.60187531 -8.7876511 4294967295
-32.925415 0.553936 -8.2334709 4294967295
-32.488346 0.50208664 -7.5465622 4294967295
-32.146774 0.47589111 -7.0410767 4294967295
-31.713326 0.42497635 -6.4468384 4294967295
-31.271181 0.39326096 -5.8587265 4294967295
-30.947407 0.35684204 -5.4586334 4294967295
-30.524918 0.31343079 -4.9630241 4294967295
-30.094055 0.29185867 -4.478611 4294967295
-29.814526 0.27428436 -4.192379 4294967295
-29.341169 0.234478 -3.7104225 4294967295
-28.927376 0.21035004 -3.3080711 4294967295
-28.631861 0.19512177 -3.0417709 4294967295
-28.076862 0.13542938 -2.5403175 4294967295
-27.677227 0.10580444 -2.2025185 4294967295
-27.223684 0.072853088 -1.8379669 4294967295
-26.786148 0.022666931 -1.4949188 4294967295
-26.311155 0.0020141602 -1.1405869 4294967295
-25.794346 -0.042282104 -0.76222229 4294967295
-25.219124 -0.1040802 -0.36417007 4294967295
-24.773458 -0.13792801 -0.083648682 4294967295
-24.330437 -0.16034317 0.19522476 4294967295
-23.897032 -0.21559906 0.45486832 4294967295
-23.414871 -0.24946213 0.72696304 4294967295
-23.034054 -0.28174973 0.92588806 4294967295
-22.584349 -0.31724548 1.1688232 4294967295
-22.139008 -0.34652328 1.3930817 4294967295
-21.704573 -0.40135193 1.6088257 4294967295
-21.29524 -0.4080162 1.794796 4294967295
-20.877239 -0.43392181 1.9866066 4294967295
-20.432823 -0.47851562 2.1875381 4294967295
-20.058319 -0.48420334 2.3377647 4294967295
-19.639297 -0.49190903 2.5014267 4294967295
-19.174543 -0.55223083 2.7010422 4294967295
-18.7778 -0.59128189 2.8564453 4294967295
-18.374746 -0.58599854 2.9967422 4294967295
-17.962563 -0.59360123 3.1472092 4294967295
-17.524414 -0.5957756 3.3053055 4294967295
-17.16362 -0.58740234 3.4297752 4294967295
-16.770126 -0.57613754 3.556366 4294967295
-16.336269 -0.62041473 3.7237473 4294967295
-15.973858 -0.63522339 3.838623 4294967295
-15.564831 -0.61829758 3.9677696 4294967295
-15.149712 -0.62992859 4.1009064 4294967295
-14.772217 -0.61855316 4.2265129 4294967295
-14.344769 -0.61552811 4.3667984 4294967295
-13.983898 -0.58678818 4.4649544 4294967295
-13.556046 -0.57346344 4.6152115 4294967295
-13.161465 -0.56459808 4.758709 4294967295
-12.815498 -0.53649902 4.8651772 4294967295
-12.464642 -0.5004425 4.9917221 4294967295
-12.048676 -0.50895691 5.1764679 4294967295
-11.398827 -0.6356926 5.6406975 4294967295
-10.348602 -0.86898041 6.7671356 4294967295
-9.550663 -1.0907669 7.836586 4294967295
-8.9862862 -1.1752586 8.7443581 4294967295
-8.3658371 -1.2891693 9.8448639 4294967295
-7.9638634 -1.4044266 10.691368 4294967295
-7.5720978 -1.469986 11.496906 4294967295
-7.3140907 -1.4571266 11.991005 4294967295
-7.0662918 -1.4220467 12.483059 4294967295
-6.7969246 -1.4237404 13.063015 4294967295
-6.6651535 -1.2919807 13.078072 4294967295
-6.8567619 -0.97584534 12.104439 4294967295
-6.6439705 -0.93687439 12.397758 4294967295
-5.319767 -1.7327499 16.695732 4294967295
-5.0140533 -1.7561722 17.317024 4294967295
-4.8273277 -1.7099075 17.578773 4294967295
-4.684227 -1.6340027 17.745956 4294967295
-4.4737206 -1.5867691 18.036674 4294967295
-4.2485123 -1.5001259 18.261589 4294967295
-3.8997879 -1.5458527 18.826164 4294967295
-3.5472832 -1.5717316 19.265579 4294967295
-3.2381897 -1.5346184 19.57782 4294967295
-2.8510971 -1.6174698 20.035919 4294967295
-2.519825 -1.5740166 20.283295 4294967295
-2.0670204 -1.6165657 20.671768 4294967295
-1.7101517 -1.6008682 20.868134 4294967295
-1.3181877 -1.574482 21.059021 4294967295
-0.90044403 -1.6207428 21.266518 4294967295
-0.39838409 -1.6540146 21.427025 4294967295
0.057678223 -1.6301422 21.501892 4294967295
0.54742813 -1.6763153 21.565338 4294967295
1.0153427 -1.680687 21.553627 4294967295
1.4477921 -1.6612015 21.494141 4294967295
1.9460564 -1.6400261 21.374252 4294967295
2.3489075 -1.6543541 21.248634 4294967295
2.740551 -1.651638 21.098343 4294967295
3.1369133 -1.6700706 20.919922 4294967295
3.5202484 -1.6955032 20.677498 4294967295
3.9215012 -1.7047882 20.37632 4294967295
4.2381744 -1.7797546 20.152634 4294967295
4.5921249 -1.769104 19.806969 4294967295
5.0790672 -1.6854362 19.108498 4294967295
5.4519577 -1.6947517 18.599991 4294967295
5.7869606 -1.7061653 18.101021 4294967295
6.209774 -1.6404915 17.289711 4294967295
6.5252533 -1.5698242 16.599594 4294967295
6.785305 -1.645504 16.140877 4294967295
7.0280914 -1.6809654 15.7006 4294967295
7.2253838 -1.7029305 15.324127 4294967295
7.4560089 -1.6995735 14.845444 4294967295
7.6762009 -1.7949944 14.47065 4294967295
7.9304771 -1.8191795 13.958168 4294967295
8.1998825 -1.8791695 13.456684 4294967295
8.4722328 -1.9191513 12.946987 4294967295
8.7940292 -1.9231682 12.272232 4294967295
9.1552086 -1.8824539 11.483562 4294967295
10.218239 -1.5118599 9.149559 4294967295
12.864674 -0.85353088 5.9712753 4294967295
13.15871 -0.88350677 5.9147491 4294967295
13.521099 -0.90101624 5.8346634 4294967295
13.888805 -0.93364716 5.7502403 4294967295
14.285774 -0.9401207 5.6337242 4294967295
14.695267 -0.96305466 5.5135536 4294967295
15.061966 -0.96739578 5.4160957 4294967295
15.472054 -0.99945831 5.3134804 4294967295
15.856071 -1.0158539 5.2067032 4294967295
16.236359 -1.0316811 5.1028976 4294967295
16.650223 -1.0519867 4.9899979 4294967295
17.063988 -1.0596237 4.8686256 4294967295
17.477127 -1.0834846 4.75951 4294967295
17.918518 -1.0867882 4.6309662 4294967295
18.340645 -1.0914307 4.5121498 4294967295
18.737869 -1.1130142 4.408287 4294967295
19.14222 -1.1375351 4.2946205 4294967295
19.582565 -1.1355553 4.1685181 4294967295
20.019196 -1.1286125 4.03545 4294967295
20.432388 -1.1313896 3.9126396 4294967295
20.883537 -1.1132126 3.7595863 4294967295
21.324669 -1.1261559 3.6305199 4294967295
21.70488 -1.15905 3.5291862 4294967295
22.122284 -1.1746216 3.3866997 4294967295
22.551933 -1.1791992 3.2431374 4294967295
22.983566 -1.1867599 3.0904465 4294967295
23.43029 -1.1654243 2.9239426 4294967295
23.918274 -1.131916 2.7302933 4294967295
24.347168 -1.126461 2.56847 4294967295
24.797745 -1.1165962 2.3797989 4294967295
25.230827 -1.1173668 2.2026939 4294967295
25.722168 -1.0859146 1.97332 4294967295
26.181152 -1.0774155 1.7542343 4294967295
26.624786 -1.0892715 1.5481415 4294967295
27.130341 -1.0748863 1.2783394 4294967295
27.672432 -1.0778656 0.98441315 4294967295
28.108841 -1.0655441 0.73763275 4294967295
28.599426 -1.069767 0.43785095 4294967295
29.129135 -1.0606728 0.11533356 4294967295
29.58844 -1.080246 -0.19220734 4294967295
30.066238 -1.0498466 -0.53113556 4294967295
30.552696 -1.0478096 -0.88119507 4294967295
30.927727 -1.0488853 -1.1619911 4294967295
31.316582 -1.0316086 -1.4717865 4294967295
31.738274 -1.0348053 -1.8147163 4294967295
32.144394 -1.0273895 -2.1690407 4294967295
32.557022 -1.0311089 -2.5443649 4294967295
32.886185 -1.0168495 -2.8508911 4294967295
33.370895 -1.0160522 -3.3352585 4294967295
33.696968 -0.98171234 -3.6697578 4294967295
34.106567 -0.96179199 -4.116188 4294967295
34.512512 -0.92241287 -4.6029968 4294967295
34.9142 -0.89530563 -5.0877647 4294967295
35.259155 -0.85212708 -5.5468483 4294967295
35.715141 -0.81053543 -6.1898613 4294967295
36.090942 -0.77878571 -6.7341995 4294967295
36.563339 -0.75009155 -7.4796982 4294967295
37.002342 -0.69079208 -8.2149963 4294967295
37.377846 -0.64084244 -8.8844299 4294967295
37.92289 -0.59203339 -9.9523888 4294967295
38.310951 -0.57276154 -10.788795 4294967295
38.79258 -0.51860046 -11.872387 4294967295
39.205971 -0.45864868 -12.938889 4294967295
39.623863 -0.40939331 -14.076668 4294967295
39.928619 -0.37508392 -14.958393 4294967295
40.33149 -0.26906586 -16.182137 4294967295
40.677032 -0.24587631 -17.183777 4294967295
40.882339 -0.16572952 -17.820938 4294967295
41.177574 -0.20262146 -18.814325 4294967295
-37.306625 1.8877449 -19.749754 4294967295
-37.033356 1.852356 -18.600651 4294967295
-36.755791 1.7180252 -17.538418 4294967295
-36.157742 1.5324669 -15.501549 4294967295
-35.745869 1.3740005 -14.27562 4294967295
-35.096107 1.264328 -12.527203 4294967295
-34.519711 1.1893082 -11.176674 4294967295
-34.064026 1.1191139 -10.22084 4294967295
-33.650673 1.0709038 -9.4364471 4294967295
-33.209923 1.0192986 -8.654911 4294967295
-32.907684 0.99190903 -8.1764984 4294967295
-32.474892 0.92248154 -7.5051689 4294967295
-32.077766 0.90390396 -6.9287567 4294967295
-31.632284 0.85593414 -6.3239098 4294967295
-31.219368 0.81847382 -5.7781906 4294967295
-30.896524 0.76692581 -5.3911819 4294967295
-30.372766 0.73011398 -4.7778053 4294967295
-30.022104 0.70222473 -4.3915749 4294967295
-29.738113 0.67621994 -4.1052551 4294967295
-29.218866 0.61252213 -3.5875435 4294967295
-28.873566 0.61162186 -3.2671432 4294967295
-28.510513 0.58755112 -2.9430771 4294967295
-28.019732 0.5236702 -2.5010834 4294967295
-27.603317 0.50992966 -2.1587524 4294967295
-27.170158 0.47661209 -1.8101692 4294967295
-26.687393 0.42873764 -1.4384689 4294967295
-26.236227 0.40535355 -1.1075401 4294967295
-25.714062 0.35172272 -0.73617172 4294967295
-25.225414 0.30503845 -0.40713501 4294967295
-24.766987 0.28149033 -0.11724091 4294967295
-24.338129 0.24253845 0.15063858 4294967295
-23.894691 0.21958923 0.40629578 4294967295
-23.458628 0.18955612 0.6544838 4294967295
-23.015749 0.16395569 0.88545227 4294967295
-22.612804 0.14528656 1.0841675 4294967295
-22.17366 0.097412109 1.3110237 4294967295
-21.704885 0.039447784 1.5439682 4294967295
-21.300468 0.011600494 1.7217331 4294967295
-20.881981 -0.0076370239 1.9139786 4294967295
-20.444233 -0.051692963 2.1157875 4294967295
-20.044338 -0.072582245 2.2826691 4294967295
-19.670191 -0.088108063 2.4268341 4294967295
-19.182026 -0.11886215 2.6254349 4294967295
-18.753696 -0.16327286 2.792038 4294967295
-18.325356 -0.162323 2.9492722 4294967295
-17.939289 -0.15731812 3.0856895 4294967295
-17.517975 -0.17825699 3.2368965 4294967295
-17.138027 -0.17760849 3.3732605 4294967295
-16.748085 -0.17913818 3.4974976 4294967295
-16.320145 -0.19394684 3.6465721 4294967295
-15.95882 -0.20437622 3.7781487 4294967295
-15.541862 -0.21802902 3.908802 4294967295
-15.1129 -0.21827316 4.0448418 4294967295
-14.729134 -0.19361115 4.1706924 4294967295
-14.294708 -0.19709015 4.3229637 4294967295
-13.913395 -0.17392731 4.4402771 4294967295
-13.5089 -0.179245 4.5855179 4294967295
-13.09795 -0.14429474 4.7358513 4294967295
-12.732674 -0.1257782 4.8632698 4294967295
-12.37468 -0.12314224 5.0047455 4294967295
-11.968689 -0.11465454 5.1786346 4294967295
-11.39922 -0.20687103 5.5608025 4294967295
-10.325512 -0.46153259 6.7001991 4294967295
-9.3005981 -0.71966553 8.0693436 4294967295
-8.6887589 -0.88668442 9.1154289 4294967295
-8.1768913 -0.96218109 10.001678 4294967295
-7.8200951 -1.0353279 10.730045 4294967295
-7.3937263 -1.1402588 11.630249 4294967295
-7.1638031 -1.1088142 12.047134 4294967295
-6.9069748 -1.0580521 12.526218 4294967295
-6.6113663 -1.0525513 13.168221 4294967295
-6.4571724 -0.92604446 13.353813 4294967295
-6.5248146 -0.72759247 12.792122 4294967295
-6.3438187 -0.68410492 13.110195 4294967295
-5.365818 -1.2778358 16.205521 4294967295
-5.0172653 -1.3329315 16.97213 4294967295
-4.8062668 -1.2969818 17.341599 4294967295
-4.6079903 -1.235218 17.617737 4294967295
-4.349678 -1.1895523 18.02478 4294967295
-4.1613503 -1.1515236 18.240623 4294967295
-3.8084908 -1.1827278 18.778862 4294967295
-3.4470825 -1.1731987 19.21608 4294967295
-3.1725273 -1.152317 19.4757 4294967295
-2.7605934 -1.2207108 19.957771 4294967295
-2.4551773 -1.189621 20.178864 4294967295
-1.9908028 -1.2530174 20.580086 4294967295
-1.6511726 -1.2184372 20.74897 4294967295
-1.2562981 -1.1938019 20.942879 4294967295
-0.85684967 -1.21698 21.12989 4294967295
-0.35899734 -1.2482986 21.301323 4294967295
0.072025299 -1.2496338 21.369209 4294967295
0.55340958 -1.2630882 21.417953 4294967295
1.0102272 -1.2727585 21.419106 4294967295
1.4611053 -1.2985458 21.373726 4294967295
1.8799171 -1.2879868 21.272919 4294967295
2.2809677 -1.2741013 21.131172 4294967295
2.6930733 -1.2826576 20.97747 4294967295
3.0719643 -1.285244 20.787865 4294967295
3.4453087 -1.3189812 20.576614 4294967295
3.8529587 -1.3353386 20.288177 4294967295
4.1561241 -1.3766785 20.050583 4294967295
4.4750023 -1.3952446 19.766907 4294967295
4.9629097 -1.3496666 19.137802 4294967295
5.3144531 -1.3484879 18.643913 4294967295
5.6392899 -1.3473396 18.149117 4294967295
6.015831 -1.3137932 17.493484 4294967295
6.3592453 -1.2633514 16.780128 4294967295
6.5984497 -1.2946053 16.352058 4294967295
6.8296623 -1.3587036 15.947563 4294967295
7.0613327 -1.3888626 15.484047 4294967295
7.2625923 -1.4107552 15.106133 4294967295
7.4485016 -1.4539757 14.772392 4294967295
7.6784019 -1.5213089 14.363579 4294967295
7.9802322 -1.5282059 13.722694 4294967295
8.2866974 -1.555233 13.108517 4294967295
8.6897316 -1.528759 12.234211 4294967295
9.0725021 -1.4676399 11.369873 4294967295
12.016834 -0.57048798 6.5055428 4294967295
12.932564 -0.38909912 5.8775597 4294967295
13.156963 -0.45373917 5.8682365 4294967295
13.462215 -0.48970795 5.8153267 4294967295
13.838268 -0.54016876 5.7258492 4294967295
14.220131 -0.56142426 5.6199951 4294967295
14.624321 -0.57548904 5.5074158 4294967295
14.994431 -0.60196686 5.3972321 4294967295
15.429565 -0.58758163 5.2715073 4294967295
15.830666 -0.61024857 5.1580963 4294967295
16.233994 -0.62654495 5.0390015 4294967295
16.656403 -0.629776 4.9191704 4294967295
17.071846 -0.63182068 4.792984 4294967295
17.488602 -0.64213562 4.6815109 4294967295
17.913048 -0.63847733 4.5574303 4294967295
18.334076 -0.64337158 4.4387817 4294967295
18.752052 -0.67805099 4.3196754 4294967295
19.1614 -0.67246628 4.2046242 4294967295
19.601929 -0.66917801 4.0793724 4294967295
20.016212 -0.68195343 3.9590378 4294967295
20.472404 -0.67131805 3.8143997 4294967295
20.883713 -0.66680527 3.6921806 4294967295
21.323601 -0.70703125 3.5639954 4294967295
21.708809 -0.74198914 3.4561577 4294967295
22.137863 -0.74414825 3.3151512 4294967295
22.547516 -0.75008392 3.1776543 4294967295
22.987076 -0.73965836 3.0240936 4294967295
23.450249 -0.72304535 2.8605652 4294967295
23.935188 -0.68986893 2.6719742 4294967295
24.374542 -0.69580841 2.5029068 4294967295
24.805389 -0.69326019 2.3349152 4294967295
25.248238 -0.68054962 2.151783 4294967295
25.731316 -0.66740417 1.9338837 4294967295
26.169983 -0.67782593 1.7310143 4294967295
26.658974 -0.66060257 1.4926186 4294967295
27.152878 -0.65109634 1.2369614 4294967295
27.655151 -0.65278244 0.97330856 4294967295
28.064117 -0.64484024 0.74714279 4294967295
28.56649 -0.64112091 0.44263458 4294967295
29.089615 -0.62713242 0.12827682 4294967295
29.562881 -0.62376404 -0.18369675 4294967295
29.984978 -0.63399887 -0.47615433 4294967295
30.513229 -0.62253952 -0.85204697 4294967295
30.870506 -0.61571121 -1.1147995 4294967295
31.244102 -0.61299896 -1.4089012 4294967295
31.735535 -0.59814453 -1.8097801 4294967295
32.109032 -0.61282349 -2.1316185 4294967295
32.502335 -0.60177612 -2.474369 4294967295
32.878517 -0.59222412 -2.8246651 4294967295
33.36322 -0.58282471 -3.3041801 4294967295
33.666496 -0.57849884 -3.6055946 4294967295
34.092514 -0.53754807 -4.0784645 4294967295
34.471672 -0.51004028 -4.5153618 4294967295
34.877129 -0.46286774 -4.999794 4294967295
35.212296 -0.45081711 -5.4363136 4294967295
35.709831 -0.39949799 -6.125721 4294967295
36.044617 -0.36767578 -6.6038322 4294967295
36.530617 -0.3135376 -7.3500137 4294967295
36.970093 -0.28676605 -8.0842361 4294967295
37.318794 -0.25811005 -8.6935806 4294967295
37.930855 -0.1941185 -9.8846664 4294967295
38.394577 -0.15115738 -10.899879 4294967295
38.81218 -0.09305954 -11.847939 4294967295
39.255814 -0.037410736 -12.92543 4294967295
39.674362 0.026847839 -14.07534 4294967295
40.081642 0.13024139 -15.235825 4294967295
40.362015 0.12085342 -16.095493 4294967295
40.729156 0.16865158 -17.193649 4294967295
40.940842 0.20666885 -17.827797 4294967295
41.224892 0.21330261 -18.776443 4294967295
-37.361061 2.3107643 -19.799618 4294967295
-37.084702 2.2308655 -18.676451 4294967295
-36.756508 2.1165733 -17.442818 4294967295
-36.237843 1.9752808 -15.690235 4294967295
-35.716194 1.8497658 -14.087852 4294967295
-35.102444 1.6783371 -12.487133 4294967295
-34.494957 1.6274033 -11.08567 4294967295
-34.037956 1.5306015 -10.141804 4294967295
-33.624577 1.5073357 -9.3586388 4294967295
-33.200001 1.4314346 -8.6252403 4294967295
-32.827194 1.410038 -8.0168152 4294967295
-32.419178 1.3462257 -7.4078674 4294967295
-32.008514 1.3087196 -6.81567 4294967295
-31.565567 1.2878609 -6.2233429 4294967295
-31.186045 1.2320099 -5.730793 4294967295
-30.810823 1.1842308 -5.2900925 4294967295
-30.342232 1.1340637 -4.750042 4294967295
-29.959099 1.0983238 -4.3342705 4294967295
-29.593098 1.0680962 -3.9715538 4294967295
-29.144413 1.027401 -3.5283623 4294967295
-28.802773 0.99621964 -3.214592 4294967295
-28.426764 0.99245834 -2.8706779 4294967295
-27.983389 0.94968796 -2.4923782 4294967295
-27.514059 0.91213608 -2.1038895 4294967295
-27.096958 0.8777504 -1.7741547 4294967295
-26.617952 0.83274078 -1.4136925 4294967295
-26.153326 0.80626678 -1.0765114 4294967295
-25.669247 0.75468445 -0.7466011 4294967295
-25.240009 0.72529221 -0.46314621 4294967295
-24.76306 0.70589066 -0.16277313 4294967295
-24.313515 0.64393997 0.11451721 4294967295
-23.865473 0.64492035 0.36925125 4294967295
-23.4723 0.59128952 0.59354401 4294967295
-22.988424 0.56607819 0.85948181 4294967295
-22.595793 0.54065704 1.0488586 4294967295
-22.173754 0.49824142 1.2547836 4294967295
-21.701389 0.47304153 1.4786301 4294967295
-21.280851 0.45226669 1.6657219 4294967295
-20.83779 0.40811157 1.8709793 4294967295
-20.41608 0.38842392 2.0620766 4294967295
-20.055544 0.37590408 2.199585 4294967295
-19.656229 0.35689926 2.36063 4294967295
-19.197601 0.32984161 2.5423775 4294967295
-18.812397 0.29206848 2.6951714 4294967295
-18.335876 0.25315857 2.8759956 4294967295
-17.920937 0.24970627 3.0284958 4294967295
-17.492165 0.2539711 3.1784515 4294967295
-17.095352 0.24667358 3.3120384 4294967295
-16.710014 0.21577454 3.4448509 4294967295
-16.316734 0.20426559 3.580307 4294967295
-15.915756 0.20587921 3.7193909 4294967295
-15.506172 0.17409515 3.8585129 4294967295
-15.064083 0.18787384 4.0002174 4294967295
-14.671249 0.18841171 4.1309242 4294967295
-14.260937 0.19713593 4.2772598 4294967295
-13.872906 0.1954422 4.3965111 4294967295
-13.472218 0.20769882 4.5382729 4294967295
-13.073395 0.23348999 4.6796265 4294967295
-12.6861 0.26783371 4.8221512 4294967295
-12.333221 0.30290604 4.9553261 4294967295
-11.92868 0.28590393 5.1457596 4294967295
-11.407707 0.22092438 5.477417 4294967295
-10.388546 -0.016456604 6.4675674 4294967295
-9.2647743 -0.28549194 7.9884605 4294967295
-8.6556168 -0.44524002 8.9792366 4294967295
-8.1078644 -0.53903198 9.9086761 4294967295
-7.6224861 -0.69563675 10.906364 4294967295
-7.2256241 -0.74575424 11.687927 4294967295
-7.0001793 -0.69896698 12.096169 4294967295
-6.7230568 -0.72954178 12.684589 4294967295
-6.4182816 -0.66437912 13.3027 4294967295
-6.2475815 -0.60934448 13.615829 4294967295
-6.1585236 -0.50478363 13.660198 4294967295
-5.9353752 -0.47519302 14.113861 4294967295
-5.3596687 -0.80027771 15.832787 4294967295
-5.0319061 -0.85457611 16.538986 4294967295
-4.7516899 -0.88952637 17.103539 4294967295
-4.5290833 -0.83937836 17.465927 4294967295
-4.241024 -0.84923935 17.946129 4294967295
-4.0373268 -0.75615692 18.19207 4294967295
-3.6893616 -0.82181549 18.709534 4294967295
-3.3672218 -0.82509232 19.121658 4294967295
-3.082901 -0.79563522 19.410233 4294967295
-2.669136 -0.87272263 19.872368 4294967295
-2.3327866 -0.83592224 20.101425 4294967295
-1.9307404 -0.87206268 20.435013 4294967295
-1.5828667 -0.85629654 20.640511 4294967295
-1.2035904 -0.83387375 20.809334 4294967295
-0.80667114 -0.86909103 20.996277 4294967295
-0.30857468 -0.89799118 21.147743 4294967295
0.12504578 -0.89045334 21.237251 4294967295
0.57089233 -0.9091301 21.283325 4294967295
1.0001602 -0.93428802 21.287712 4294967295
1.4283409 -0.94366074 21.243889 4294967295
1.8516998 -0.93295288 21.139595 4294967295
2.2395439 -0.93804169 21.005287 4294967295
2.6325111 -0.93065643 20.854286 4294967295
3.0227356 -0.94246674 20.661613 4294967295
3.3938179 -0.92896652 20.441177 4294967295
3.7574348 -0.97905731 20.20993 4294967295
4.1249809 -0.99815369 19.898041 4294967295
4.4342384 -1.0075722 19.622131 4294967295
4.8878365 -0.97343826 19.051323 4294967295
5.2059288 -0.9674263 18.613533 4294967295
5.5627403 -0.97967911 18.09594 4294967295
5.9172821 -0.94612503 17.467262 4294967295
6.2137947 -0.91687012 16.889679 4294967295
6.4518166 -0.94038391 16.430283 4294967295
6.6586609 -0.98668289 16.088562 4294967295
6.9131203 -1.0209198 15.569862 4294967295
7.1215439 -1.1036682 15.212624 4294967295
7.3260078 -1.1131325 14.807419 4294967295
7.4918213 -1.2149467 14.577347 4294967295
7.8114395 -1.1924286 13.849537 4294967295
8.1629868 -1.1793594 13.114285 4294967295
8.5979004 -1.0791473 12.097889 4294967295
8.9726677 -1.1122627 11.344009 4294967295
12.322723 -0.082351685 6.1686096 4294967295
12.977608 0.053821564 5.7723274 4294967295
13.137085 -0.037338257 5.8347778 4294967295
13.414753 -0.099632263 5.7892914 4294967295
13.785545 -0.13424301 5.7075081 4294967295
14.171097 -0.13811111 5.5877571 4294967295
14.56913 -0.18716049 5.4727554 4294967295
14.974098 -0.1860199 5.346405 4294967295
15.395378 -0.19608307 5.22015 4294967295
15.809647 -0.19933701 5.09095 4294967295
16.231331 -0.21792221 4.9698067 4294967295
16.655396 -0.19842529 4.8376694 4294967295
17.053658 -0.2269516 4.7305717 4294967295
17.482292 -0.22601318 4.6048775 4294967295
17.918175 -0.22927094 4.4818878 4294967295
18.336372 -0.21667099 4.3658752 4294967295
18.76609 -0.23420715 4.2479935 4294967295
19.178978 -0.23577118 4.1318817 4294967295
19.61393 -0.23449326 4.0088654 4294967295
20.026031 -0.25276947 3.8875504 4294967295
20.480423 -0.23042297 3.7468605 4294967295
20.899055 -0.23641586 3.62677 4294967295
21.313423 -0.25116348 3.5029526 4294967295
21.71286 -0.30473709 3.3883743 4294967295
22.121201 -0.30587769 3.2605095 4294967295
22.575333 -0.3000679 3.099926 4294967295
23.000809 -0.30570602 2.9639359 4294967295
23.462608 -0.29000473 2.7983856 4294967295
23.951477 -0.2686882 2.6095924 4294967295
24.363747 -0.26791 2.4550858 4294967295
24.809441 -0.26595688 2.2846985 4294967295
25.265846 -0.25644684 2.0933456 4294967295
25.715347 -0.24688339 1.8954201 4294967295
26.163773 -0.24694061 1.6989059 4294967295
26.655548 -0.22945023 1.4549141 4294967295
27.143784 -0.23298264 1.2079239 4294967295
27.621422 -0.23239899 0.95742798 4294967295
28.023964 -0.24282074 0.74060059 4294967295
28.514587 -0.22378159 0.45499802 4294967295
29.043304 -0.21588516 0.13365936 4294967295
29.484085 -0.21399307 -0.15076065 4294967295
29.934731 -0.21365738 -0.45668411 4294967295
30.467636 -0.17894363 -0.83601761 4294967295
30.836357 -0.20532227 -1.1019554 4294967295
31.157646 -0.1921196 -1.3397026 4294967295
31.667374 -0.18493652 -1.7558594 4294967295
32.082184 -0.17281342 -2.105751 4294967295
32.46801 -0.15922928 -2.4423866 4294967295
32.847961 -0.15298843 -2.7902985 4294967295
33.344444 -0.15314865 -3.2739449 4294967295
33.668938 -0.16020584 -3.5956039 4294967295
34.071899 -0.11471939 -4.0400581 4294967295
34.385132 -0.098213196 -4.3793373 4294967295
34.901543 -0.052375793 -5.0114174 4294967295
35.205093 -0.028152466 -5.3974648 4294967295
35.664688 0.015151978 -6.0272255 4294967295
36.058411 0.032646179 -6.575985 4294967295
36.530533 0.10084534 -7.303463 4294967295
36.961441 0.12937927 -8.0193405 4294967295
37.298569 0.14692688 -8.603569 4294967295
37.94664 0.22885895 -9.846714 4294967295
38.411476 0.28839111 -10.845402 4294967295
38.80072 0.3170433 -11.72448 4294967295
39.28624 0.38779831 -12.885201 4294967295
39.640442 0.42525482 -13.829792 4294967295
40.128944 0.50867081 -15.224003 4294967295
40.445023 0.5439415 -16.159229 4294967295
40.758057 0.61331558 -17.095177 4294967295
40.991005 0.65348816 -17.816525 4294967295
-37.392006 2.6953087 -19.787952 4294967295
-37.146389 2.6416855 -18.80093 4294967295
-36.765831 2.5443192 -17.360569 4294967295
-36.330219 2.4563179 -15.86961 4294967295
-35.64019 2.2599716 -13.812458 4294967295
-35.110481 2.1056404 -12.457844 4294967295
-34.489311 2.0282631 -11.043976 4294967295
-34.000858 1.9729271 -10.060806 4294967295
-33.578213 1.919323 -9.2698174 4294967295
-33.203781 1.8818779 -8.6101761 4294967295
-32.745682 1.8104095 -7.879467 4294967295
-32.32354 1.7735786 -7.2568474 4294967295
-31.954453 1.723999 -6.7351265 4294967295
-31.504709 1.6820717 -6.1432037 4294967295
-31.115721 1.6464767 -5.647419 4294967295
-30.715939 1.5914154 -5.1821365 4294967295
-30.278721 1.5263023 -4.6863136 4294967295
-29.871187 1.4962921 -4.2599182 4294967295
-29.509565 1.4831314 -3.9049377 4294967295
-29.07073 1.4494705 -3.4753304 4294967295
-28.696047 1.4026031 -3.1284637 4294967295
-28.377638 1.3887596 -2.8558388 4294967295
-27.919411 1.3481369 -2.4652939 4294967295
-27.492233 1.3101044 -2.1178436 4294967295
-27.041473 1.2684059 -1.7690926 4294967295
-26.595253 1.2368279 -1.4377251 4294967295
-26.106611 1.2164116 -1.0844307 4294967295
-25.646181 1.1834068 -0.78037262 4294967295
-25.225241 1.1469765 -0.50390625 4294967295
-24.73908 1.1074066 -0.18991852 4294967295
-24.313835 1.0937996 0.06035614 4294967295
-23.866472 1.0488701 0.32629395 4294967295
-23.47258 1.0350342 0.54215622 4294967295
-22.995897 1.0116119 0.79249191 4294967295
-22.565809 0.97597122 1.0061989 4294967295
-22.156242 0.94392776 1.2049866 4294967295
-21.688128 0.890625 1.4240265 4294967295
-21.26449 0.87776947 1.6154518 4294967295
-20.815117 0.84968185 1.8189926 4294967295
-20.385269 0.80472946 2.006115 4294967295
-20.032537 0.80607986 2.1458817 4294967295
-19.649359 0.807827 2.2926216 4294967295
-19.216936 0.74939728 2.4714241 4294967295
-18.812111 0.72050858 2.6279144 4294967295
-18.349684 0.69774246 2.7907906 4294967295
-17.921188 0.69230652 2.9579506 4294967295
-17.495003 0.66330338 3.1204948 4294967295
-17.091255 0.65590286 3.2518806 4294967295
-16.714535 0.6603775 3.368515 4294967295
-16.287716 0.63298798 3.5258713 4294967295
-15.890903 0.61814117 3.6609955 4294967295
-15.479984 0.64546967 3.7935371 4294967295
-15.03548 0.59894943 3.9407082 4294967295
-14.621841 0.60140991 4.0799675 4294967295
-14.231297 0.59699249 4.2144356 4294967295
-13.842644 0.61466217 4.3390388 4294967295
-13.397072 0.62469101 4.5092468 4294967295
-13.028381 0.64796066 4.6395836 4294967295
-12.628208 0.66526031 4.8012657 4294967295
-12.283398 0.69617462 4.9263115 4294967295
-11.829113 0.68047714 5.161602 4294967295
-11.355049 0.61661148 5.468605 4294967295
-10.421188 0.44753647 6.3191338 4294967295
-9.2055397 0.10325241 7.9772339 4294967295
-8.547287 -0.084178925 8.9575539 4294967295
-8.0244293 -0.15109634 9.8547707 4294967295
-7.4739685 -0.28802872 10.882805 4294967295
-7.0966263 -0.3368988 11.652351 4294967295
-6.8462181 -0.35857773 12.156075 4294967295
-6.5289192 -0.3461647 12.812309 4294967295
-6.2613297 -0.36175156 13.444527 4294967295
-6.0590553 -0.30688095 13.817024 4294967295
-5.9051666 -0.25782394 14.077972 4294967295
-5.5988426 -0.28520966 14.800247 4294967295
-5.2771759 -0.34780884 15.597435 4294967295
-5.0105629 -0.3931694 16.192497 4294967295
-4.7313042 -0.40307617 16.753204 4294967295
-4.4622612 -0.43680191 17.278862 4294967295
-4.1651039 -0.46045303 17.786072 4294967295
-3.9152603 -0.4276886 18.151543 4294967295
-3.550293 -0.4448204 18.654305 4294967295
-3.2513809 -0.44150925 19.023949 4294967295
-2.9754066 -0.42847824 19.316048 4294967295
-2.5593567 -0.51066208 19.781052 4294967295
-2.2336693 -0.45359802 20.004791 4294967295
-1.8511925 -0.50524902 20.312027 4294967295
-1.5334053 -0.49208832 20.483711 4294967295
-1.1364212 -0.5073204 20.697762 4294967295
-0.75291824 -0.53071976 20.865074 4294967295
-0.2772522 -0.51875305 20.978996 4294967295
0.15628433 -0.52235031 21.068718 4294967295
0.5829277 -0.55503082 21.12748 4294967295
1.000721 -0.561409 21.122849 4294967295
1.4211006 -0.55873489 21.071785 4294967295
1.835968 -0.56779861 20.985237 4294967295
2.2245293 -0.55800247 20.853508 4294967295
2.6130219 -0.55080414 20.684212 4294967295
3.0182495 -0.56152725 20.491272 4294967295
3.3566055 -0.58789825 20.301544 4294967295
3.7376518 -0.58206558 20.012894 4294967295
4.0528793 -0.615345 19.771194 4294967295
4.4131622 -0.63011169 19.423203 4294967295
4.7952576 -0.61762619 18.974197 4294967295
5.1717758 -0.56549454 18.417725 4294967295
5.4358978 -0.6039772 18.081039 4294967295
5.8000793 -0.57931519 17.460587 4294967295
6.1249847 -0.57154083 16.83223 4294967295
6.3351517 -0.61080933 16.453072 4294967295
6.5722466 -0.62649536 16.03936 4294967295
6.7995262 -0.63050842 15.556625 4294967295
6.9984665 -0.69247437 15.184845 4294967295
7.2329178 -0.758255 14.764908 4294967295
7.3911667 -0.83138275 14.522087 4294967295
7.7510605 -0.80617142 13.693905 4294967295
8.124752 -0.76040649 12.868629 4294967295
8.5344124 -0.72871017 11.952549 4294967295
8.8705292 -0.68849945 11.255306 4294967295
12.569653 0.48722458 5.8836823 4294967295
12.921894 0.48747635 5.7624588 4294967295
13.071312 0.36273193 5.8335304 4294967295
13.36837 0.31135178 5.7771072 4294967295
13.710243 0.283535 5.6897163 4294967295
14.126961 0.26698685 5.5503731 4294967295
14.510498 0.24808502 5.4295425 4294967295
14.927063 0.23852539 5.2953949 4294967295
15.361366 0.2144165 5.1578598 4294967295
15.798141 0.21544266 5.0202179 4294967295
16.226501 0.21560669 4.884655 4294967295
16.64048 0.19556427 4.7645035 4294967295
17.05098 0.21557617 4.6429558 4294967295
17.486671 0.21579361 4.5219727 4294967295
17.948746 0.22954941 4.3930893 4294967295
18.362251 0.21681976 4.2818298 4294967295
18.775223 0.20822144 4.1667061 4294967295
19.19133 0.2088623 4.0530205 4294967295
19.600662 0.18187714 3.9371185 4294967295
20.02298 0.18047714 3.8189583 4294967295
20.478096 0.1749382 3.6852417 4294967295
20.887566 0.18327713 3.5639648 4294967295
21.305634 0.16743088 3.4466438 4294967295
21.699471 0.13431168 3.3283157 4294967295
22.139969 0.13112259 3.1830063 4294967295
22.58963 0.14395905 3.0355911 4294967295
23.01474 0.14271164 2.8944473 4294967295
23.487625 0.14563751 2.7284813 4294967295
23.934822 0.17204285 2.5631981 4294967295
24.348328 0.15258789 2.4164619 4294967295
24.813194 0.15533447 2.2348175 4294967295
25.221939 0.17062378 2.0653496 4294967295
25.673027 0.14442825 1.8719063 4294967295
26.146744 0.16081238 1.6644821 4294967295
26.648125 0.19353485 1.421772 4294967295
27.109001 0.18510818 1.1835556 4294967295
27.598129 0.19078827 0.93584824 4294967295
28.016006 0.19113541 0.7146492 4294967295
28.470352 0.18099976 0.45254135 4294967295
28.978065 0.20925903 0.15232468 4294967295
29.413589 0.20209503 -0.12076569 4294967295
29.79332 0.19562149 -0.37955475 4294967295
30.367493 0.23191071 -0.78357315 4294967295
30.772316 0.2236557 -1.0716248 4294967295
31.112968 0.20856857 -1.3182106 4294967295
31.569756 0.23677444 -1.678318 4294967295
32.038246 0.25800323 -2.0648727 4294967295
32.467316 0.26911926 -2.4456062 4294967295
32.838371 0.26436615 -2.7836304 4294967295
33.304482 0.27142715 -3.229454 4294967295
33.673119 0.28269196 -3.5983086 4294967295
34.049179 0.29494858 -4.0082054 4294967295
